ply
format ascii 1.0
element vertex 1379
property float x
property float y
property float z
end_header
21.830640 -28.023755 63.747448
20.153890 -27.174826 63.812625
18.155951 -27.359228 63.852532
16.295704 -27.100644 63.903273
14.481261 -26.694702 63.957617
12.483322 -26.879104 63.997524
10.760768 -26.177533 64.059098
8.991494 -25.626271 64.116996
7.222221 -25.075009 64.174894
5.455131 -24.516720 64.232963
3.457192 -24.701122 64.272870
1.914399 -23.421223 64.348588
0.145125 -22.869961 64.406486
-1.573060 -22.154336 64.468403
-2.863881 -21.488711 64.518961
-4.258315 -20.129018 64.593801
-6.020119 -19.553724 64.652287
-7.696870 -18.704795 64.717465
-8.661756 -17.388075 64.781117
-10.203915 -16.106138 64.856884
-11.464034 -15.286880 64.911589
-12.838082 -13.916457 64.986302
-13.745637 -12.300494 65.058089
-14.886439 -10.807300 65.131339
-16.110028 -9.357682 65.205108
-17.168042 -7.820914 65.277839
-17.351045 -5.823579 65.345083
-18.491847 -4.330386 65.418333
-18.674850 -2.333051 65.485576
-18.857853 -0.335716 65.552820
-19.040856 1.661618 65.620064
-19.223859 3.658953 65.687307
-19.406862 5.656288 65.754551
-19.330282 7.573144 65.813313
-18.739525 9.330590 65.855274
-17.889185 11.007558 65.888752
-17.672273 12.880907 65.942929
-16.388919 14.423628 65.962259
-16.371508 16.358829 66.022954
-14.927502 17.285288 66.019151
-14.256619 18.829837 66.052557
-12.735402 19.920415 66.052169
-11.452048 21.463135 66.071499
-10.168694 23.005856 66.090829
-8.782708 24.353488 66.101651
-7.245910 25.414449 66.099971
-5.606479 26.280321 66.089783
-4.882790 27.724494 66.118812
-3.058301 28.238599 66.093283
-1.418870 29.104471 66.083095
0.103890 30.192117 66.082579
1.859991 30.836215 66.062720
3.499422 31.702087 66.052532
5.090569 32.659740 66.046347
7.088508 32.844142 66.006440
8.582878 33.985753 66.008277
10.077248 35.127363 66.010115
12.075188 35.311765 65.970208
14.073127 35.496167 65.930301
16.071066 35.680569 65.890394
18.069005 35.864971 65.850487
20.066944 36.049373 65.810580
22.064884 36.233775 65.770673
24.062823 36.418177 65.730766
26.060762 36.602579 65.690859
28.058701 36.786981 65.650952
30.056641 36.971383 65.611045
32.054580 37.155785 65.571138
33.793974 36.508394 65.510889
35.729270 36.491258 65.466053
37.559636 36.136545 65.412962
39.328910 35.585283 65.355064
41.080710 34.977803 65.295791
43.078649 35.162205 65.255884
44.755400 34.313277 65.190707
46.753339 34.497679 65.150800
47.725128 33.203166 65.087690
49.523648 32.745995 65.032093
51.263676 32.100642 64.971894
52.805835 30.818705 64.896127
54.553899 30.199209 64.836561
56.117267 28.985506 64.762462
57.824339 28.401503 64.704954
58.751434 26.795825 64.633045
60.052524 25.998132 64.578083
61.450079 24.813583 64.508700
62.477609 23.698400 64.449976
64.019768 22.416463 64.374209
65.520111 21.112516 64.298704
66.426821 19.496107 64.226922
67.291714 17.857689 64.155403
68.156607 16.219270 64.083883
69.125519 14.635602 64.011711
69.308522 12.638267 63.944467
69.491525 10.640932 63.877223
70.632327 9.147739 63.803973
70.815330 7.150404 63.736730
70.657587 5.258711 63.680620
70.147993 3.476102 63.636007
70.282931 1.493669 63.570334
69.480656 -0.198201 63.535285
68.630316 -1.875169 63.501806
68.624921 -3.814095 63.440718
67.341568 -5.356815 63.421388
66.788898 -7.126070 63.378183
65.505544 -8.668791 63.358853
64.222191 -10.211511 63.339523
63.528276 -11.936976 63.300933
62.243982 -13.253215 63.288775
60.390659 -13.712510 63.316693
59.107305 -15.255231 63.297363
57.467874 -16.121103 63.307551
56.184521 -17.663824 63.288221
54.772132 -18.961268 63.279588
53.261736 -20.072417 63.279079
51.279822 -20.287280 63.317658
49.785452 -21.428891 63.315820
47.987367 -21.993184 63.339160
46.347936 -22.859056 63.349348
44.798773 -23.896514 63.352053
42.800834 -24.080916 63.391960
41.306464 -25.222527 63.390122
39.308524 -25.406929 63.430029
37.310585 -25.591331 63.469936
35.799196 -26.700591 63.469510
33.818276 -26.917343 63.508006
31.820337 -27.101745 63.547913
29.822397 -27.286147 63.587820
27.824458 -27.470549 63.627727
25.826519 -27.654951 63.667634
23.828580 -27.839353 63.707541
-27.318654 -49.651008 -32.032672
-28.856231 -48.581225 -31.857188
-30.850670 -48.491978 -31.644292
-32.845109 -48.402731 -31.431397
-34.839548 -48.313483 -31.218502
-36.833987 -48.224236 -31.005607
-38.371564 -47.154453 -30.830123
-39.969991 -46.215270 -30.649656
-41.903580 -45.995424 -30.441744
-43.630808 -45.332679 -30.250729
-45.435595 -44.836394 -30.053364
-46.973172 -43.766611 -29.877880
-48.967611 -43.677364 -29.664985
-50.629393 -42.874155 -29.479330
-52.499627 -42.518334 -29.276606
-54.037204 -41.448551 -29.101122
-55.636044 -40.510255 -28.920621
-57.569220 -40.289521 -28.712743
-59.106796 -39.219738 -28.537259
-60.644373 -38.149956 -28.361775
-62.311578 -37.358387 -28.175676
-63.719526 -36.010390 -28.010807
-65.326295 -35.089110 -27.829657
-66.995179 -34.301143 -27.643421
-68.341012 -32.819833 -27.483638
-70.009895 -32.031866 -27.297402
-71.267822 -31.093947 -27.153123
-72.308898 -29.501436 -27.024455
-73.900661 -28.547950 -26.844534
-75.323615 -27.232159 -26.678436
-76.669448 -25.750849 -26.518654
-78.015281 -24.269539 -26.358871
-79.594106 -23.288284 -26.180009
-80.314284 -21.739108 -26.085924
-81.660117 -20.257798 -25.926142
-82.673365 -19.230600 -25.806844
-83.594393 -17.594284 -25.690433
-84.515421 -15.957969 -25.574022
-85.219359 -14.242441 -25.479775
-86.357477 -12.685339 -25.341199
-86.479599 -10.757514 -25.306354
-87.187362 -9.043382 -25.211716
-88.455551 -7.533740 -25.059861
-89.029418 -5.770751 -24.978894
-88.938274 -3.765109 -24.965822
-89.630196 -2.045197 -24.872802
-89.768158 -0.123152 -24.836340
-89.677014 1.882489 -24.823268
-89.585870 3.888131 -24.810197
-89.494727 5.893773 -24.797125
-89.403583 7.899415 -24.784054
-89.312439 9.905056 -24.770982
-88.246731 11.452469 -24.866644
-88.155587 13.458111 -24.853573
-87.833266 15.355056 -24.866294
-86.998735 17.011165 -24.936163
-86.907591 19.016807 -24.923092
-85.217589 19.673011 -25.095187
-84.802766 21.526463 -25.118229
-83.646372 23.031236 -25.224009
-82.671350 24.621288 -25.309552
-81.605641 26.168701 -25.405214
-80.600425 27.744556 -25.494127
-79.474225 29.263526 -25.596538
-78.081235 30.059382 -25.735495
-77.295627 31.738494 -25.799906
-75.639547 32.589594 -25.966187
-74.087316 33.729303 -26.118160
-72.612586 35.084399 -26.259457
-71.120512 36.391293 -26.403143
-69.404275 37.075208 -26.577712
-68.445677 38.273558 -26.665954
-66.885086 39.390034 -26.819080
-65.188940 40.129784 -26.990880
-63.986136 41.526300 -27.102819
-62.632315 42.340573 -27.237406
-60.885736 42.940162 -27.416155
-59.165154 43.611999 -27.591322
-57.628999 44.796388 -27.741081
-55.697992 44.883426 -27.945237
-54.006192 45.635254 -28.116439
-52.377823 46.563367 -28.278902
-50.749455 47.491480 -28.441365
-48.763668 47.426279 -28.653068
-47.126647 48.330346 -28.816723
-45.498279 49.258459 -28.979186
-43.503840 49.169211 -29.192081
-41.509401 49.079964 -29.404976
-39.836913 49.885464 -29.573517
-37.886593 49.918830 -29.780334
-36.258225 50.846943 -29.942797
-34.263785 50.757696 -30.155693
-32.384887 50.989552 -30.352670
-30.640978 51.596562 -30.531051
-28.646539 51.507314 -30.743946
-26.925293 52.177310 -30.919204
-25.023731 52.346180 -31.119304
-23.029292 52.256933 -31.332200
-21.034853 52.167686 -31.545095
-19.040414 52.078439 -31.757990
-17.045975 51.989191 -31.970885
-15.051535 51.899944 -32.183780
-13.057096 51.810697 -32.396676
-11.062657 51.721450 -32.609571
-9.297902 51.139247 -32.803658
-7.530641 50.562420 -32.997950
-5.536202 50.473173 -33.210845
-3.541763 50.383925 -33.423740
-1.653216 50.067409 -33.627964
-0.009747 49.224896 -33.812120
1.984692 49.135648 -34.025015
3.676486 48.396852 -34.213127
5.516708 47.976618 -34.413394
7.511147 47.887371 -34.626289
9.048723 46.817589 -34.801773
10.998121 46.631671 -35.010980
12.580739 45.658559 -35.190152
14.335888 45.055738 -35.383453
16.004772 44.267771 -35.569689
17.350605 42.786461 -35.729472
19.187908 42.359963 -35.929500
20.725485 41.290181 -36.104983
22.357256 40.422560 -36.288181
24.026139 39.634593 -36.474417
25.695023 38.846626 -36.660653
27.332654 37.991585 -36.844331
28.709739 36.577349 -37.006672
30.378623 35.789382 -37.192909
31.945384 34.782237 -37.370782
33.221377 34.032826 -37.514842
34.438636 32.668710 -37.659636
36.015393 31.683018 -37.838328
37.361226 30.201708 -37.998111
38.707059 28.720398 -38.157893
39.904045 27.760243 -38.295950
41.006062 26.189968 -38.430840
42.351896 24.708658 -38.590622
42.982015 22.966194 -38.677333
44.327848 21.484884 -38.837115
44.957968 19.742420 -38.923826
46.626851 18.954454 -39.110062
47.390005 17.260532 -39.210355
48.311033 15.624217 -39.326766
49.232061 13.987902 -39.443177
49.863043 12.245753 -39.529976
50.061945 10.345945 -39.572660
50.407568 8.499673 -39.630324
50.891829 6.703988 -39.702143
50.952094 4.753593 -39.730672
51.721713 3.062031 -39.831625
52.212333 1.268666 -39.904093
52.551598 -0.579926 -39.961108
51.485941 -2.127363 -39.865452
51.394745 -4.132981 -39.878518
51.303602 -6.138622 -39.891589
50.507357 -7.812734 -39.825992
50.146749 -9.691677 -39.808999
50.055606 -11.697319 -39.822070
49.528774 -13.498105 -39.786532
48.898754 -15.250373 -39.739480
48.586228 -17.012348 -39.726268
46.913097 -17.816060 -39.557638
46.702785 -19.765670 -39.557414
45.341880 -21.174285 -39.428817
43.867150 -22.529381 -39.287520
43.505660 -24.407909 -39.270429
42.037082 -25.168223 -39.123038
41.251473 -26.847336 -39.058627
39.776743 -28.202431 -38.917330
38.302014 -29.557527 -38.776034
37.258236 -30.519152 -38.676056
35.782824 -31.872353 -38.534665
34.949471 -33.418777 -38.463677
33.263635 -34.187178 -38.293297
31.788905 -35.542274 -38.152000
30.064366 -36.203116 -37.976288
28.435997 -37.131229 -37.813825
26.951863 -38.218095 -37.668486
25.761162 -39.013494 -37.551014
24.068973 -39.764240 -37.379758
22.504425 -40.869720 -37.226088
20.860662 -41.755049 -37.061504
19.127081 -42.390762 -36.884546
17.393500 -43.026475 -36.707589
15.659919 -43.662188 -36.530631
13.996512 -44.492925 -36.363341
12.368144 -45.421038 -36.200878
10.373705 -45.331791 -35.987983
8.725596 -46.205042 -35.822800
6.750897 -46.170656 -35.612624
5.122529 -47.098769 -35.450161
3.128090 -47.009522 -35.237266
1.499721 -47.937635 -35.074803
-0.201160 -48.664226 -34.902350
-2.123087 -48.776501 -34.699445
-4.117526 -48.687254 -34.486550
-5.919605 -49.132602 -34.300155
-7.740333 -49.526119 -34.111192
-9.734772 -49.436872 -33.898296
-11.729212 -49.347625 -33.685401
-13.371630 -50.236690 -33.521002
-15.352019 -50.186491 -33.310043
-17.346458 -50.097244 -33.097148
-19.340897 -50.007996 -32.884252
-21.335337 -49.918749 -32.671357
-23.329776 -49.829502 -32.458462
-25.324215 -49.740255 -32.245567
-19.703116 -51.760227 -31.610156
-21.341430 -50.866855 -31.425972
-23.326518 -50.998512 -31.216576
-25.311607 -51.130169 -31.007181
-27.296695 -51.261826 -30.797785
-29.281783 -51.393483 -30.588389
-31.266872 -51.525140 -30.378994
-32.905186 -50.631768 -30.194809
-34.847342 -50.636523 -29.988535
-36.528588 -49.870053 -29.801229
-38.513676 -50.001710 -29.591833
-40.311871 -49.580930 -29.396025
-42.051645 -48.987464 -29.204464
-43.775392 -48.346622 -29.014069
-45.531194 -47.800531 -28.821343
-47.398795 -47.584907 -28.620488
-49.037109 -46.691535 -28.436304
-50.995723 -46.744938 -28.228833
-52.660511 -45.929819 -28.042724
-54.475271 -45.558005 -27.845711
-56.215046 -44.964539 -27.654150
-57.922227 -44.274732 -27.464959
-59.560541 -43.381360 -27.280774
-61.124525 -43.030422 -27.110640
-62.255878 -41.556062 -26.973722
-63.985851 -40.933626 -26.782874
-65.532506 -39.769318 -26.605353
-67.220193 -39.021888 -26.417579
-68.809134 -37.982573 -26.236984
-70.436629 -37.704422 -26.060929
-71.511450 -36.177908 -25.929425
-73.006018 -34.859636 -25.755691
-74.500586 -33.541365 -25.581957
-75.995153 -32.223094 -25.408223
-77.710952 -31.558758 -25.218405
-78.546636 -29.972579 -25.111629
-80.041204 -28.654308 -24.937895
-81.535772 -27.336037 -24.764161
-82.347480 -25.678988 -24.659129
-83.272988 -24.078397 -24.542647
-84.367246 -22.561526 -24.409187
-85.465465 -21.046620 -24.275329
-86.555763 -19.527784 -24.142268
-87.650022 -18.010913 -24.008808
-87.900591 -16.075475 -23.960231
-88.872830 -14.498068 -23.839048
-89.001380 -12.502094 -23.802746
-90.095638 -10.985223 -23.669287
-90.224188 -8.989249 -23.632985
-90.352738 -6.993275 -23.596684
-90.481287 -4.997301 -23.560383
-90.609837 -3.001327 -23.524081
-90.738387 -1.005352 -23.487780
-89.891224 0.657889 -23.558910
-89.976542 2.639121 -23.527369
-90.105092 4.635095 -23.491068
-89.555422 6.399786 -23.529442
-88.963154 8.149950 -23.572507
-88.452853 9.928067 -23.606547
-87.778616 11.650279 -23.658637
-87.186348 13.400443 -23.701701
-86.594079 15.150608 -23.744766
-85.281308 16.655070 -23.867162
-84.000881 18.170563 -23.985997
-84.081536 20.124291 -23.955264
-82.447915 20.973609 -24.119178
-81.292055 22.531581 -24.224298
-80.206790 23.541984 -24.328130
-79.473624 25.244100 -24.386708
-77.965665 26.110358 -24.537081
-76.652894 27.614821 -24.659477
-75.340123 29.119283 -24.781873
-74.027352 30.623745 -24.904269
-72.378497 31.441956 -25.070156
-71.065726 32.946418 -25.192552
-69.416870 33.764628 -25.358438
-68.077200 35.214167 -25.484315
-66.455243 36.087301 -25.646721
-64.806387 36.905511 -25.812607
-63.157531 37.723722 -25.978493
-61.562735 38.652316 -26.137384
-60.195904 40.046394 -26.266776
-58.543150 40.856644 -26.433167
-56.898192 41.682815 -26.598549
-55.048269 42.090465 -26.790454
-53.538477 43.192629 -26.938345
-51.951625 44.137445 -27.096208
-50.043596 44.426450 -27.295632
-48.317828 45.087614 -27.471471
-46.548715 45.660271 -27.652919
-45.020116 46.724034 -27.803243
-43.053835 46.894092 -28.010205
-41.068746 47.025749 -28.219601
-39.558954 48.127913 -28.367492
-37.573866 48.259570 -28.576888
-35.588777 48.391227 -28.786283
-33.603689 48.522884 -28.995679
-31.618601 48.654541 -29.205075
-30.108808 49.756705 -29.352966
-28.123720 49.888362 -29.562362
-26.138632 50.020019 -29.771757
-24.153544 50.151676 -29.981153
-22.168455 50.283333 -30.190548
-20.183367 50.414990 -30.399944
-18.198279 50.546647 -30.609340
-16.213191 50.678304 -30.818735
-14.258174 50.721073 -31.025945
-12.589788 49.916589 -31.212316
-10.604700 50.048246 -31.421711
-8.619612 50.179903 -31.631107
-6.981298 49.286531 -31.815291
-4.996209 49.418188 -32.024687
-3.083909 49.334691 -32.228791
-1.372807 48.656472 -32.418267
0.395639 48.147759 -32.611913
2.250595 47.894757 -32.811847
4.235683 48.026414 -33.021243
5.873997 47.133042 -33.205428
7.845149 47.223504 -33.413810
9.339717 45.905233 -33.587544
11.135714 45.477955 -33.783192
12.819265 44.718301 -33.970666
14.759116 44.716239 -34.176772
16.298814 43.531368 -34.353787
18.035744 42.929495 -34.545142
19.674058 42.036123 -34.729326
21.312372 41.142750 -34.913511
23.012704 40.432698 -35.102204
24.589000 39.356006 -35.281880
26.247046 38.520961 -35.467499
27.986820 37.927495 -35.659060
29.481388 36.609223 -35.832794
31.142256 35.782517 -36.018618
32.497520 35.192383 -36.169292
33.772645 33.765243 -36.320948
35.267213 32.446971 -36.494682
36.761781 31.128700 -36.668416
37.840262 29.604002 -36.800289
39.068057 28.153380 -36.947183
40.754322 27.401747 -37.134854
42.051103 26.116971 -37.287195
43.114108 24.584594 -37.417511
44.239620 23.083229 -37.554114
45.333879 21.566358 -37.687574
45.549234 19.613449 -37.732609
47.043801 18.295178 -37.906343
47.650945 16.536642 -37.990794
48.667218 14.981081 -38.116408
48.873754 13.023797 -38.160555
49.968012 11.506926 -38.294015
50.096562 9.510952 -38.330316
50.548334 7.675334 -38.399136
51.319370 5.998107 -38.500077
50.684186 4.262577 -38.452287
50.557525 2.353634 -38.460488
50.686075 0.357659 -38.496790
50.814625 -1.638315 -38.533091
50.476618 -3.475186 -38.518022
50.052780 -5.282788 -38.493502
49.292080 -6.975515 -38.431892
49.290936 -8.927261 -38.453913
48.400541 -10.575760 -38.378023
47.515274 -12.226008 -38.302698
47.638697 -14.220233 -38.338434
46.748302 -15.868733 -38.262544
46.264046 -17.324186 -38.227611
44.810114 -18.540413 -38.086948
44.039476 -20.229751 -38.024244
42.905075 -21.795040 -37.921487
41.592304 -23.299502 -37.799091
40.279533 -24.803965 -37.676695
39.458955 -26.476272 -37.608492
38.038408 -27.372339 -37.467743
36.725637 -28.876801 -37.345347
35.412866 -30.381264 -37.222951
33.764010 -31.199474 -37.057065
32.451239 -32.703937 -36.934669
30.802383 -33.522147 -36.768782
29.489613 -35.026609 -36.646386
28.176842 -36.531072 -36.523990
26.527986 -37.349282 -36.358104
24.879130 -38.167492 -36.192217
23.230274 -38.985702 -36.026331
21.676252 -39.997553 -35.872716
19.932562 -40.622123 -35.694558
18.181371 -41.231374 -35.515429
16.634850 -42.258543 -35.362785
15.161786 -43.435702 -35.219647
13.337139 -43.894964 -35.031013
11.666905 -44.669523 -34.862360
10.039427 -45.531384 -34.699240
8.647320 -46.873852 -34.566578
6.662232 -47.005509 -34.357182
4.677144 -47.137166 -34.147786
2.771834 -47.431721 -33.948714
1.182263 -48.370987 -33.790500
-0.327529 -49.473151 -33.642608
-2.312618 -49.604808 -33.433213
-4.297706 -49.736465 -33.223817
-6.282794 -49.868121 -33.014421
-8.129556 -50.282226 -32.822926
-9.777675 -51.101942 -32.657135
-11.762763 -51.233599 -32.447739
-13.747851 -51.365256 -32.238343
-15.732940 -51.496913 -32.028948
-17.718028 -51.628570 -31.819552
-31.381902 -48.139501 -31.611126
-32.876833 -47.010245 -31.439498
-34.866244 -46.842930 -31.226251
-36.855656 -46.675614 -31.013004
-38.629349 -46.088650 -30.817914
-40.339999 -45.379044 -30.628129
-42.329410 -45.211728 -30.414882
-43.890110 -44.210416 -30.237719
-45.813753 -43.915157 -30.030007
-47.803165 -43.747842 -29.816761
-49.298095 -42.618586 -29.645133
-51.287507 -42.451271 -29.431886
-52.782438 -41.322016 -29.260258
-54.411630 -40.453946 -29.077329
-56.266780 -40.025445 -28.875383
-57.761711 -38.896189 -28.703755
-59.322739 -37.895517 -28.526563
-61.246053 -37.599618 -28.318880
-62.740983 -36.470363 -28.147252
-64.235914 -35.341107 -27.975623
-65.870884 -34.484278 -27.792209
-67.507920 -33.631468 -27.608620
-68.795306 -32.098464 -27.454460
-70.215636 -30.824085 -27.289111
-71.719727 -29.712650 -27.116712
-73.699979 -29.527514 -26.904236
-74.268546 -27.774100 -26.823941
-75.614935 -26.355878 -26.664815
-77.192967 -25.388286 -26.486192
-78.604796 -24.097367 -26.321559
-80.117389 -23.002472 -26.148444
-80.679520 -21.236537 -26.068690
-82.014682 -19.796475 -25.910509
-82.878688 -18.617793 -25.805348
-84.424119 -17.586779 -25.629469
-85.077855 -15.999048 -25.542005
-86.365240 -14.466044 -25.387846
-86.927372 -12.700109 -25.308092
-88.214757 -11.167105 -25.153932
-88.990183 -9.469675 -25.052296
-89.847073 -7.798408 -24.942302
-89.901150 -5.869301 -24.914671
-90.535189 -4.126461 -24.827540
-90.366415 -2.125781 -24.822772
-90.862289 -0.338567 -24.749816
-91.424421 1.427368 -24.670062
-91.911422 3.217432 -24.598016
-91.742647 5.218112 -24.593248
-91.573873 7.218792 -24.588480
-91.405099 9.219472 -24.583712
-91.236325 11.220152 -24.578944
-91.067551 13.220832 -24.574176
-90.121130 14.817994 -24.656601
-89.773976 16.726113 -24.671833
-89.097034 18.463107 -24.724043
-88.480401 20.231394 -24.769491
-87.396925 21.757438 -24.867282
-86.546870 23.404604 -24.938902
-85.696815 25.051769 -25.010522
-84.937223 26.745876 -25.071998
-83.996706 28.346101 -25.153761
-83.146651 29.993267 -25.225381
-82.220726 31.400759 -25.307780
-80.539756 32.207807 -25.477205
-79.013688 33.504192 -25.624621
-77.487620 34.800576 -25.772038
-76.475313 35.935190 -25.866710
-74.880724 37.015117 -26.023862
-73.956468 38.623779 -26.103802
-72.273829 39.229657 -26.275686
-70.747761 40.526042 -26.423103
-69.221693 41.822427 -26.570519
-67.464852 42.389801 -26.750724
-65.938784 43.686186 -26.898140
-64.181943 44.253561 -27.078344
-62.425103 44.820936 -27.258549
-60.751603 45.651583 -27.426912
-59.142194 46.684695 -27.586169
-57.425503 47.378904 -27.760669
-55.436091 47.211589 -27.973916
-53.871672 48.386820 -28.126782
-52.109992 48.938909 -28.307673
-50.357990 49.521569 -28.487190
-48.601149 50.088944 -28.667394
-46.794481 50.498914 -28.854677
-45.087468 51.223694 -29.027802
-43.142019 51.195259 -29.234803
-41.152608 51.027944 -29.448050
-39.489558 51.891604 -29.614928
-37.826508 52.755264 -29.781807
-35.837096 52.587949 -29.995054
-33.854104 52.440913 -30.207388
-32.184635 53.284294 -30.375179
-30.195223 53.116978 -30.588426
-28.205811 52.949663 -30.801673
-26.542761 53.813323 -30.968551
-24.553350 53.646008 -31.181798
-22.563938 53.478693 -31.395045
-20.574526 53.311377 -31.608292
-18.585114 53.144062 -31.821539
-16.595702 52.976747 -32.034786
-14.606291 52.809431 -32.248032
-12.616879 52.642116 -32.461279
-10.627467 52.474801 -32.674526
-8.638055 52.307485 -32.887773
-7.106154 51.250151 -33.062513
-5.153713 51.010914 -33.272648
-3.164301 50.843599 -33.485895
-1.174889 50.676284 -33.699141
0.490945 49.879496 -33.885154
2.309453 49.379713 -34.084016
3.804384 48.250457 -34.255644
5.793796 48.083142 -34.468891
7.738392 47.828645 -34.678366
9.025778 46.295641 -34.832526
10.773069 45.657316 -35.025394
12.649501 45.270216 -35.229132
14.257411 44.360745 -35.410269
15.923574 43.564597 -35.596309
17.560611 42.711787 -35.779898
19.197647 41.858977 -35.963487
20.731615 40.805663 -36.138400
22.226545 39.676407 -36.310029
23.759105 38.620353 -36.484824
25.396141 37.767543 -36.668412
27.033177 36.914734 -36.852001
28.320563 35.381729 -37.006161
29.957599 34.528920 -37.189749
31.594635 33.676110 -37.373338
32.882021 32.143106 -37.527498
34.185990 30.642363 -37.683053
35.806442 29.757292 -37.865246
36.972934 28.753357 -38.000560
38.005610 27.138547 -38.128589
39.292995 25.605543 -38.282748
40.580380 24.072539 -38.436908
42.080668 22.953704 -38.608987
42.779548 21.453794 -38.700251
43.341679 19.687860 -38.780004
44.629064 18.154856 -38.934164
45.191195 16.388921 -39.013918
46.478581 14.855917 -39.168078
46.616741 12.953815 -39.204335
47.473631 11.282548 -39.314329
48.164974 9.558113 -39.407339
48.161747 7.610602 -39.429091
49.018637 5.939335 -39.539085
49.851367 4.260309 -39.646600
49.706753 2.267388 -39.653847
49.537979 0.266708 -39.658615
49.369205 -1.733972 -39.663383
49.200431 -3.734652 -39.668151
49.031657 -5.735332 -39.672919
48.862883 -7.736012 -39.677687
48.694109 -9.736692 -39.682455
47.829702 -11.376411 -39.609226
47.400534 -13.241973 -39.584797
46.805606 -15.021523 -39.541783
46.106958 -16.747253 -39.487140
45.728025 -18.497678 -39.466742
44.024669 -19.234010 -39.294137
43.737823 -21.173423 -39.285666
43.000573 -22.879123 -39.226695
41.488221 -24.182625 -39.080816
40.393677 -25.093663 -38.974871
39.287859 -26.608114 -38.874574
38.017555 -28.037214 -38.755834
36.491487 -29.333598 -38.608418
35.548570 -30.687415 -38.523604
33.884591 -31.548139 -38.356594
32.757067 -33.051327 -38.253863
31.466207 -34.358186 -38.131553
29.751628 -35.059064 -37.957353
27.994787 -35.626439 -37.777149
27.144732 -37.273605 -37.705529
25.394433 -37.861643 -37.526255
23.631051 -38.408354 -37.345121
22.068333 -39.588963 -37.192497
20.348142 -40.272114 -37.017500
18.591301 -40.839488 -36.837296
16.834460 -41.406863 -36.657092
15.308393 -42.703248 -36.509675
13.426723 -42.876289 -36.311736
11.794711 -43.837998 -36.149267
10.100623 -44.603609 -35.977979
8.437574 -45.467269 -35.811100
6.448162 -45.299954 -35.597853
4.767348 -46.107497 -35.428451
3.010507 -46.674872 -35.248247
1.132651 -46.859959 -35.050849
-0.856761 -46.692644 -34.837602
-2.519811 -47.556304 -34.670724
-4.478402 -47.486351 -34.461856
-6.172272 -48.252649 -34.290598
-8.161684 -48.085333 -34.077352
-10.151096 -47.918018 -33.864105
-11.967311 -48.297831 -33.675465
-13.803558 -48.614363 -33.483979
-15.792969 -48.447048 -33.270732
-17.782381 -48.279732 -33.057486
-19.686993 -48.380301 -32.856287
-21.434843 -48.976077 -32.677360
-23.424255 -48.808762 -32.464113
-25.413666 -48.641447 -32.250866
-27.403078 -48.474131 -32.037620
-29.392490 -48.306816 -31.824373
13.008488 -47.728210 -35.304514
11.395110 -46.775880 -35.122310
9.398225 -46.835301 -34.910841
7.401340 -46.894723 -34.699373
5.404455 -46.954144 -34.487905
3.407570 -47.013565 -34.276436
1.794191 -46.061235 -34.094232
-0.202694 -46.120657 -33.882763
-2.199579 -46.180078 -33.671295
-3.856962 -45.343839 -33.485733
-5.809843 -45.287169 -33.277622
-7.574709 -44.734489 -33.083858
-9.297992 -44.072105 -32.893268
-11.033485 -43.441932 -32.701745
-13.015739 -43.462755 -32.491393
-14.643749 -42.549023 -32.308072
-16.257127 -41.596694 -32.125868
-17.914410 -40.760189 -31.940313
-19.867391 -40.703786 -31.732195
-21.480770 -39.751456 -31.549991
-23.477655 -39.810877 -31.338522
-24.384123 -38.512411 -31.227491
-25.836226 -37.134612 -31.057593
-27.559509 -36.472229 -30.867002
-29.282793 -35.809845 -30.676411
-30.734896 -34.432046 -30.506513
-32.458180 -33.769663 -30.315922
-33.910283 -32.391864 -30.146024
-35.362387 -31.014065 -29.976126
-37.032282 -30.210835 -29.789609
-37.843173 -28.660222 -29.685871
-39.566456 -27.997838 -29.495280
-40.323959 -26.306378 -29.395616
-41.776062 -24.928579 -29.225718
-42.533565 -23.237119 -29.126053
-44.198718 -22.421377 -28.939898
-45.444758 -21.077634 -28.792278
-46.466455 -19.505476 -28.665900
-47.522784 -17.948957 -28.536020
-47.579483 -15.941034 -28.507216
-48.618496 -14.376695 -28.379087
-48.801865 -12.425972 -28.337475
-49.714208 -10.804433 -28.222154
-50.316871 -9.043051 -28.138146
-50.809921 -7.232172 -28.065222
-50.866620 -5.224248 -28.036418
-51.894778 -3.655008 -27.909387
-51.962333 -1.651987 -27.879485
-51.306311 0.083498 -27.929490
-51.070036 1.979432 -27.933081
-51.126736 3.987355 -27.904277
-51.183435 5.995278 -27.875473
-50.796573 7.833650 -27.895716
-50.291139 9.626697 -27.929069
-49.475003 11.300978 -27.996778
-49.398842 13.258116 -27.982665
-48.449847 14.881611 -28.065064
-47.500851 16.505107 -28.147464
-46.831864 18.235636 -28.198902
-45.979700 19.539849 -28.274636
-44.637331 20.790101 -28.403061
-43.827282 22.466709 -28.470097
-42.455363 23.928542 -28.599260
-41.790345 25.660588 -28.650259
-40.111566 26.425950 -28.819924
-38.739647 27.887784 -28.949087
-37.921130 29.561155 -29.017059
-36.590933 30.822955 -29.144060
-35.023931 31.847025 -29.298915
-33.340918 32.610769 -29.469048
-32.502413 33.945633 -29.542984
-30.686027 34.410089 -29.730681
-29.314108 35.871922 -29.859845
-27.631096 36.635666 -30.029978
-26.259177 38.097499 -30.159141
-24.576164 38.861243 -30.329274
-23.160825 40.225642 -30.464156
-21.163940 40.285063 -30.675624
-19.527126 41.152476 -30.839673
-18.050078 42.378399 -30.982682
-16.161101 42.679964 -31.179939
-14.496261 43.484488 -31.347679
-12.795075 44.207452 -31.520205
-10.942445 44.590578 -31.712676
-8.945560 44.649999 -31.924144
-7.388628 45.696667 -32.077673
-5.391743 45.756088 -32.289141
-3.757823 46.629995 -32.452809
-1.837927 46.862177 -32.654138
0.158958 46.921599 -32.865607
2.155843 46.981020 -33.077075
3.907510 47.590704 -33.256250
5.709659 48.087109 -33.442072
7.706544 48.146530 -33.653541
9.703429 48.205951 -33.865009
11.700314 48.265372 -34.076478
13.697200 48.324794 -34.287946
15.694085 48.384215 -34.499414
17.690970 48.443636 -34.710883
19.687855 48.503057 -34.922351
21.301233 47.550728 -35.104556
23.298118 47.610149 -35.316024
25.295003 47.669570 -35.527492
27.273726 47.681076 -35.737575
28.905267 46.776662 -35.921165
30.902152 46.836083 -36.132634
32.515531 45.883753 -36.314838
34.438040 45.746959 -36.520631
36.125794 44.990845 -36.708511
37.884607 44.422193 -36.901813
39.736058 44.097937 -37.102183
41.349437 43.145607 -37.284388
43.325637 43.150459 -37.494278
44.959700 42.252699 -37.678061
46.573079 41.300370 -37.860265
48.495487 41.163309 -38.066050
50.183343 40.407461 -38.253938
51.670874 39.123127 -38.426539
53.394157 38.460744 -38.617130
54.846261 37.082945 -38.787028
56.298364 35.705146 -38.956926
58.250236 35.645814 -39.164960
59.050330 34.066718 -39.267874
60.894719 33.723828 -39.467706
61.802297 32.428290 -39.578822
63.254400 31.050491 -39.748720
64.529702 30.185812 -39.894014
65.735186 28.696647 -40.038976
67.187290 27.318848 -40.208874
68.639393 25.941049 -40.378772
69.668068 24.372042 -40.505856
70.848999 22.871790 -40.648334
72.301103 21.493991 -40.818232
73.753206 20.116192 -40.988130
73.824120 18.114688 -41.018371
74.863133 16.550349 -41.146500
76.025714 15.041811 -41.287124
76.941159 13.421672 -41.402758
76.997859 11.413749 -41.431562
77.054558 9.405826 -41.460366
77.666524 7.648645 -41.545315
78.150270 5.833564 -41.617299
78.206970 3.825641 -41.646102
78.263669 1.817718 -41.674906
78.320368 -0.190205 -41.703710
78.377067 -2.198128 -41.732513
78.433767 -4.206051 -41.761317
78.172091 -6.092275 -41.754917
77.511306 -7.825940 -41.704386
76.592475 -9.460966 -41.625322
76.649174 -11.468889 -41.654126
75.528952 -13.026933 -41.552793
74.751183 -14.715880 -41.489327
74.207382 -16.494262 -41.451731
72.853192 -17.962871 -41.324528
72.174679 -19.689759 -41.272037
70.802761 -21.151592 -41.142874
69.430842 -22.613425 -41.013710
68.058924 -24.075259 -40.884547
67.398139 -25.808923 -40.834016
66.026220 -27.270756 -40.704852
64.654302 -28.732589 -40.575689
62.971289 -29.496333 -40.405556
61.599371 -30.958166 -40.276392
60.182758 -32.319707 -40.141343
58.544439 -33.183744 -39.977096
57.068896 -34.413044 -39.834286
55.178414 -34.711232 -39.636830
54.472647 -36.427702 -39.581325
52.540422 -36.548474 -39.377422
51.151604 -37.972385 -39.246033
49.426560 -38.641811 -39.070365
47.785578 -39.499873 -38.905767
46.102566 -40.263617 -38.735634
44.315812 -40.794568 -38.551839
42.736540 -41.791105 -38.395368
41.053527 -42.554849 -38.225235
39.205064 -42.947326 -38.033313
37.648133 -43.993994 -37.879784
35.651248 -44.053415 -37.668316
33.699288 -44.213648 -37.462764
32.097431 -45.159504 -37.303319
30.100546 -45.218925 -37.091850
28.339156 -45.806791 -36.911396
26.546730 -46.325015 -36.726853
24.549845 -46.384436 -36.515385
22.667929 -46.701845 -36.319057
20.996029 -47.490525 -36.150388
18.999144 -47.549946 -35.938919
17.002259 -47.609367 -35.727451
15.005373 -47.668789 -35.515983
5.873368 -48.919767 -35.410715
4.349609 -47.837445 -35.236557
2.360917 -47.731823 -35.024086
0.372226 -47.626201 -34.811616
-1.151533 -46.543878 -34.637458
-3.140224 -46.438256 -34.424987
-5.128915 -46.332634 -34.212517
-7.054766 -46.095001 -34.005225
-8.641365 -45.144689 -33.825888
-10.165124 -44.062367 -33.651730
-12.153815 -43.956745 -33.439260
-13.690827 -42.902262 -33.264009
-15.666266 -42.768800 -33.052631
-17.190025 -41.686478 -32.878473
-18.713784 -40.604155 -32.704315
-20.326888 -39.709524 -32.522794
-22.226234 -39.416211 -32.317686
-23.749993 -38.333889 -32.143528
-25.303934 -37.314970 -31.966882
-26.797511 -36.169244 -31.795211
-28.321270 -35.086922 -31.621053
-29.952223 -34.229785 -31.438061
-31.368788 -32.922277 -31.272736
-32.941497 -31.942785 -31.094544
-34.416306 -30.757632 -30.924420
-35.940065 -29.675310 -30.750261
-37.589786 -28.857600 -30.565723
-38.920045 -27.368784 -30.407510
-39.680327 -25.677353 -30.307551
-40.862725 -24.135976 -30.164450
-42.192984 -22.647160 -30.006236
-43.450178 -21.706137 -29.862000
-44.513192 -20.207439 -29.732066
-45.405600 -19.051623 -29.624147
-46.204855 -17.374046 -29.520204
-47.112608 -15.735038 -29.405173
-47.960703 -14.074824 -29.296238
-47.912939 -12.096149 -29.278864
-48.820692 -10.457141 -29.163833
-49.080134 -8.587672 -29.115061
-50.410392 -7.098856 -28.956848
-50.528776 -5.179244 -28.922493
-50.421354 -3.179362 -28.911216
-50.313933 -1.179481 -28.899939
-50.706572 0.642640 -28.837555
-51.114264 2.459409 -28.773631
-50.122737 4.034562 -28.861097
-49.928681 5.992823 -28.859497
-49.821260 7.992705 -28.848220
-49.713838 9.992586 -28.836943
-48.998958 11.700641 -28.893511
-48.528255 13.526001 -28.922808
-47.450093 15.059534 -29.019951
-47.298101 17.038004 -29.013652
-46.264509 18.592949 -29.105816
-45.186347 20.126482 -29.202958
-44.224410 21.715850 -29.287120
-43.030023 23.193549 -29.397243
-42.632894 25.054253 -29.418323
-41.150718 26.393697 -29.560588
-39.415639 27.011616 -29.737907
-37.933463 28.351059 -29.880172
-36.699891 29.809933 -29.994672
-35.402626 30.638180 -30.123092
-33.920450 31.977624 -30.265358
-32.438275 33.317067 -30.407623
-30.774892 34.139535 -30.575004
-29.221020 35.274430 -30.727207
-27.512832 35.969069 -30.900799
-26.003765 37.231793 -31.046791
-24.268685 37.849713 -31.224110
-22.619740 38.713370 -31.389490
-20.988710 39.628137 -31.552387
-19.316351 40.424995 -31.721013
-17.726649 41.457671 -31.878182
-15.846191 41.660834 -32.075650
-14.106928 42.266816 -32.253549
-12.376032 42.896672 -32.430288
-10.640952 43.514592 -32.607607
-8.856176 43.990728 -32.791814
-6.917889 44.028906 -32.997298
-5.236454 44.799873 -33.167181
-3.447729 45.264745 -33.351936
-1.616732 45.609018 -33.542549
0.022430 46.500584 -33.706573
2.002989 46.418162 -33.917917
3.991680 46.312540 -34.130387
5.980371 46.206918 -34.342857
7.721462 46.807689 -34.521009
9.600093 47.016063 -34.718225
11.588784 46.910441 -34.930695
13.577475 46.804819 -35.143165
15.566166 46.699196 -35.355636
17.554857 46.593574 -35.568106
19.543549 46.487952 -35.780576
21.532240 46.382330 -35.993047
23.520931 46.276708 -36.205517
25.044690 45.194385 -36.379675
27.033381 45.088763 -36.592146
29.022072 44.983141 -36.804616
30.950221 44.750335 -37.012098
32.534522 43.795196 -37.191245
34.523213 43.689574 -37.403715
36.046972 42.607252 -37.577873
38.035664 42.501629 -37.790344
39.574054 41.450044 -37.965708
41.548114 41.313685 -38.176972
43.536805 41.208063 -38.389443
45.060564 40.125740 -38.563601
46.584323 39.043418 -38.737759
48.526644 38.840383 -38.946409
49.856902 37.351567 -39.104622
51.620532 36.773151 -39.298546
53.174933 35.755198 -39.475229
54.833948 34.957014 -39.660533
56.492963 34.158829 -39.845837
57.823222 32.670013 -40.004050
59.239327 31.361539 -40.169338
60.812496 30.383013 -40.347567
62.142754 28.894197 -40.505781
63.801770 28.096012 -40.691084
65.132028 26.607197 -40.849298
66.462287 25.118381 -41.007511
67.552330 24.117938 -41.134664
68.733724 22.576204 -41.277662
70.063983 21.087388 -41.435875
71.394242 19.598572 -41.594089
72.198514 17.922779 -41.698544
73.442559 16.587679 -41.845854
74.278101 15.312404 -41.949088
75.608360 13.823588 -42.107301
75.860944 11.951681 -42.155371
76.833204 10.335604 -42.276996
77.676449 8.673665 -42.385434
77.569028 6.673784 -42.396711
78.476781 5.034776 -42.511743
78.369359 3.034894 -42.523020
79.177479 1.360469 -42.627868
79.169690 -0.603995 -42.649328
79.062269 -2.603876 -42.660605
78.954848 -4.603758 -42.671881
78.847426 -6.603639 -42.683158
78.740005 -8.603521 -42.694435
78.632584 -10.603402 -42.705712
77.920582 -12.312840 -42.649465
77.447000 -14.136817 -42.619847
76.368838 -15.670350 -42.522704
76.261417 -17.670231 -42.533981
75.423967 -19.319404 -42.463723
74.105093 -20.737298 -42.339697
73.832451 -22.657807 -42.332521
72.350276 -23.997250 -42.190255
70.870607 -25.337898 -42.048270
70.072343 -27.005895 -41.982389
68.714282 -28.404964 -41.853985
67.794409 -30.014540 -41.774522
66.312234 -31.353984 -41.632257
64.590669 -32.010459 -41.456811
63.462312 -33.487815 -41.353699
62.046317 -34.259024 -41.212018
61.218560 -35.836935 -41.141981
59.262575 -35.824621 -40.934044
57.780399 -37.164064 -40.791778
56.298224 -38.503508 -40.649513
54.563144 -39.121427 -40.472194
53.645069 -40.441663 -40.389639
51.779402 -40.687024 -40.194221
50.297227 -42.026467 -40.051955
48.394317 -42.165575 -39.851375
46.827068 -43.262306 -39.697318
45.132256 -43.995109 -39.525580
43.356908 -44.498145 -39.342680
41.512535 -44.804254 -39.150213
39.886749 -45.733984 -38.988042
38.250474 -46.633788 -38.824418
36.261783 -46.528166 -38.611948
34.428606 -46.866218 -38.421032
32.642061 -47.337310 -38.236580
30.958446 -48.102057 -38.066395
29.022340 -48.146455 -37.861213
27.033649 -48.040833 -37.648743
25.247399 -48.512767 -37.464331
23.413927 -48.849978 -37.273375
21.425236 -48.744356 -37.060905
19.436545 -48.638734 -36.848434
17.447854 -48.533111 -36.635964
15.560383 -48.716267 -36.437523
13.828132 -49.342256 -36.260596
11.839441 -49.236634 -36.048126
9.850750 -49.131012 -35.835656
7.862059 -49.025390 -35.623185
-19.537458 -28.802131 64.562352
-20.940713 -27.366290 64.639799
-22.702420 -26.767462 64.699025
-24.710921 -26.744919 64.745707
-26.355446 -25.872462 64.810890
-27.875883 -24.710249 64.882380
-29.463199 -23.704203 64.950471
-31.466866 -23.670372 64.997398
-32.872193 -22.239368 65.074740
-34.631828 -21.635702 65.134071
-36.281187 -20.774533 65.199008
-37.796790 -19.601033 65.270744
-39.388939 -18.606275 65.338589
-41.093436 -17.873857 65.400724
-42.544233 -16.549029 65.475753
-43.490819 -15.420803 65.533036
-44.894074 -13.984962 65.610483
-45.586960 -12.264325 65.680661
-47.276954 -11.498043 65.743533
-47.984343 -9.811271 65.812974
-48.677228 -8.090635 65.883153
-49.262890 -6.327011 65.952234
-50.062999 -4.649361 66.023510
-50.755885 -2.928724 66.093688
-51.200125 -1.108403 66.161323
-51.176126 0.899641 66.224167
-51.152128 2.907684 66.287011
-51.128130 4.915728 66.349855
-51.104131 6.923771 66.412698
-50.801686 8.812791 66.465412
-50.061415 10.514657 66.502196
-50.037417 12.522701 66.565040
-48.600223 13.926662 66.576468
-47.866401 15.631285 66.613487
-46.429207 17.035246 66.624915
-45.695386 18.739870 66.661934
-44.258192 20.143831 66.673362
-42.820998 21.547792 66.684790
-41.383803 22.951753 66.696219
-39.946609 24.355714 66.707647
-38.225065 25.049679 66.690153
-36.503522 25.743643 66.672658
-35.066327 27.147604 66.684087
-33.344783 27.841569 66.666593
-31.623240 28.535533 66.649098
-29.925815 29.289721 66.634057
-28.319445 30.271265 66.628278
-26.458608 30.617426 66.596616
-24.704574 31.230266 66.575817
-23.015520 32.005355 66.561627
-21.089703 32.189268 66.523356
-19.288083 32.683287 66.497716
-17.474832 33.148269 66.470894
-15.466331 33.125726 66.424212
-13.457830 33.103183 66.377531
-11.449329 33.080640 66.330849
-9.440828 33.058097 66.284167
-7.432326 33.035554 66.237485
-5.423825 33.013012 66.190803
-3.415324 32.990469 66.144121
-1.406823 32.967926 66.097439
0.178420 31.957042 66.029243
2.184159 31.928048 65.982421
3.888656 31.195631 65.920286
5.775141 30.888171 65.867402
7.357622 29.870836 65.799066
9.303389 29.701803 65.749195
10.948605 28.830959 65.684048
12.712383 28.236968 65.624927
14.416880 27.504551 65.562792
16.122068 26.773746 65.500693
17.825874 26.039716 65.438523
19.287030 24.739077 65.364020
20.933627 23.871458 65.298943
22.336882 22.435616 65.221496
24.034473 21.687073 65.159011
25.444635 20.267358 65.081915
26.847890 18.831516 65.004469
27.540776 17.110879 64.934290
28.944031 15.675038 64.856844
29.965360 14.086078 64.783305
31.080117 12.611834 64.711249
31.933590 11.460972 64.655383
32.727185 9.780711 64.584174
32.890208 7.847646 64.519417
32.866209 5.839602 64.456573
33.846826 4.234320 64.383450
33.822827 2.226277 64.320607
33.798829 0.218233 64.257763
33.774831 -1.789810 64.194919
32.775463 -3.380924 64.167561
32.732114 -5.380696 64.105421
32.011193 -7.090834 64.067933
31.277372 -8.795458 64.030915
30.543551 -10.500082 63.993896
29.651963 -12.137266 63.962617
28.372535 -13.608666 63.945449
26.935341 -15.012627 63.934020
26.042122 -16.319249 63.913215
24.479976 -17.411215 63.914496
23.570650 -19.040818 63.883862
22.024611 -19.809804 63.894971
20.303067 -20.503768 63.912466
18.595864 -21.233541 63.928501
16.989495 -22.215085 63.934280
15.422785 -23.295658 63.936026
13.776755 -24.178173 63.945839
12.170385 -25.159717 63.951618
10.542503 -26.087548 63.959586
8.555514 -26.118718 64.004080
6.815066 -26.765480 64.023497
4.940643 -27.077719 64.056541
3.087628 -27.443412 64.087408
1.325772 -28.036720 64.109002
-0.682729 -28.014178 64.155684
-2.361353 -28.815309 64.168813
-4.297600 -28.973179 64.208145
-6.306101 -28.950636 64.254827
-8.314602 -28.928093 64.301509
-10.323104 -28.905550 64.348191
-12.331605 -28.883007 64.394873
-14.098836 -28.297080 64.453819
-15.922587 -27.843130 64.509891
-17.531564 -28.818163 64.515936
-13.581576 -29.078550 63.762070
-15.163254 -28.056772 63.830528
-17.173726 -28.028596 63.877433
-19.184199 -28.000419 63.924338
-21.003455 -27.529156 63.980854
-22.776350 -26.950465 64.039701
-24.411191 -26.051876 64.105487
-26.368501 -25.900511 64.155064
-27.950178 -24.878734 64.223522
-29.825998 -24.538540 64.277196
-31.529866 -23.799900 64.339512
-33.124007 -22.807002 64.407344
-34.705685 -21.785225 64.475802
-36.338266 -20.881399 64.541702
-38.042134 -20.142760 64.604018
-39.442798 -18.701538 64.681575
-40.843462 -17.260316 64.759132
-42.547330 -16.521677 64.821449
-43.947994 -15.080455 64.899006
-44.637497 -13.356421 64.969214
-46.038161 -11.915199 65.046771
-47.438825 -10.473978 65.124328
-48.277007 -8.809070 65.196073
-49.253105 -7.199008 65.269242
-50.218496 -5.584688 65.342302
-50.199569 -3.578927 65.405190
-51.175668 -1.968866 65.478359
-51.146033 0.041153 65.541137
-52.122131 1.651215 65.614306
-51.943137 3.596895 65.671634
-51.069335 5.243276 65.703610
-51.039701 7.253295 65.766388
-51.010066 9.263314 65.829165
-50.149910 10.418763 65.845955
-48.972375 11.841961 65.863933
-48.625563 13.715351 65.915138
-47.885518 15.419350 65.951994
-46.896418 17.016065 65.979764
-45.702900 18.524724 66.000075
-44.260326 19.926098 66.011298
-42.817753 21.327472 66.022522
-41.375179 22.728846 66.033745
-39.650239 23.419432 66.016066
-38.207665 24.820806 66.027290
-36.482726 25.511392 66.009611
-35.040152 26.912766 66.020835
-33.315212 27.603351 66.003156
-31.590273 28.293937 65.985478
-29.922282 29.127878 65.973628
-28.311135 30.104909 65.967597
-26.300662 30.076732 65.920692
-24.689515 31.053763 65.914661
-22.683209 31.036075 65.868182
-21.067895 32.002617 65.861725
-19.057422 31.974441 65.814820
-17.446275 32.951472 65.808789
-15.435802 32.923295 65.761884
-13.425329 32.895119 65.714979
-11.414856 32.866942 65.668074
-9.404383 32.838766 65.621169
-7.393911 32.810590 65.574264
-5.383438 32.782413 65.527359
-3.372965 32.754237 65.480455
-1.362492 32.726060 65.433550
0.247468 31.769818 65.366513
2.229658 31.676106 65.318187
4.240131 31.647930 65.271282
5.821809 30.626152 65.202823
7.832282 30.597976 65.155918
9.413960 29.576198 65.087460
11.077083 28.743144 65.023096
13.006110 28.526244 64.972097
14.484818 27.265865 64.898463
16.169466 26.482689 64.835180
17.892554 25.788586 64.773830
19.332822 24.439134 64.698264
20.997086 23.608725 64.633957
22.397750 22.167503 64.556400
24.077856 21.373802 64.492889
25.502282 19.987642 64.416526
26.902946 18.546420 64.338969
28.091381 17.020800 64.263605
28.993114 15.381164 64.191204
30.043578 13.800676 64.117266
31.083281 12.215909 64.043439
31.995775 10.580553 63.970926
32.462288 8.767841 63.903022
32.942239 6.960472 63.834979
33.130134 5.036960 63.769954
33.888702 3.340392 63.699032
33.859068 1.330373 63.636255
33.829433 -0.679646 63.573477
33.799798 -2.689665 63.510700
33.104340 -4.412870 63.472217
32.747003 -6.281726 63.421396
31.723841 -7.863768 63.394870
30.884206 -9.524867 63.361647
30.144162 -11.228867 63.324790
28.701588 -12.630241 63.313567
27.961543 -14.334240 63.276710
26.518970 -15.735614 63.265487
25.076396 -17.136988 63.254263
23.633822 -18.538363 63.243040
22.049055 -19.581800 63.246371
20.536969 -20.660760 63.246917
19.412330 -21.544068 63.244772
17.718959 -22.314118 63.259219
16.190036 -23.498130 63.256834
14.551445 -24.406078 63.265674
12.826505 -25.096663 63.283353
11.101566 -25.787249 63.301031
9.346121 -26.401045 63.321832
7.369321 -26.457631 63.365291
5.724501 -27.349900 63.374768
3.714028 -27.321723 63.421673
2.102881 -28.298754 63.427704
0.092408 -28.270578 63.474609
-1.537743 -29.199769 63.482586
-3.529212 -29.219432 63.527545
-5.539685 -29.191255 63.574450
-7.550157 -29.163079 63.621355
-9.560630 -29.134903 63.668260
-11.571103 -29.106726 63.715165
