ply
format ascii 1.0
element vertex 1191
property float x
property float y
property float z
end_header
6.801120 -57.592422 -46.898275
5.132247 -56.736000 -46.744919
3.139468 -56.912027 -46.564983
1.146689 -57.088053 -46.385048
-0.846090 -57.264080 -46.205112
-2.694838 -56.981008 -46.036995
-4.507742 -56.583684 -45.871820
-6.447414 -56.590431 -45.696243
-8.169394 -55.903288 -45.538529
-10.162174 -56.079315 -45.358593
-12.154953 -56.255342 -45.178657
-13.823826 -55.398919 -45.025302
-15.492698 -54.542497 -44.871946
-17.476106 -54.688651 -44.692779
-19.154350 -53.862101 -44.538655
-20.823223 -53.005679 -44.385299
-22.816002 -53.181705 -44.205363
-24.523185 -52.447395 -44.048864
-26.477654 -52.501309 -43.872072
-28.046725 -51.326768 -43.726906
-29.808494 -50.766454 -43.565927
-31.484273 -49.932042 -43.412005
-33.102998 -48.915774 -43.262765
-34.822018 -48.219197 -43.105294
-36.490891 -47.362775 -42.951938
-38.106827 -47.087549 -42.804919
-39.245002 -45.590733 -42.697905
-40.916341 -44.742172 -42.544347
-42.539505 -43.740054 -42.394743
-44.072238 -42.449688 -42.252559
-45.834008 -41.889374 -42.091580
-46.702350 -40.251370 -42.008619
-48.355630 -39.376275 -41.856626
-49.309168 -38.040863 -41.766756
-50.841901 -36.750497 -41.624572
-52.080020 -35.916185 -41.510271
-52.784328 -34.192351 -41.441932
-54.290824 -33.498466 -41.303708
-55.402793 -31.987938 -41.199031
-55.596552 -29.996962 -41.176201
-57.116183 -28.699740 -41.035185
-57.858344 -26.995712 -40.963472
-58.829573 -25.411543 -40.871340
-59.164073 -23.494208 -40.835965
-59.338906 -21.493329 -40.814823
-60.469801 -19.992704 -40.708458
-60.644634 -17.991825 -40.687316
-61.084933 -16.129849 -40.642510
-61.950363 -14.490321 -40.559809
-61.401302 -12.718249 -40.604808
-61.271859 -10.813545 -40.611466
-61.446692 -8.812666 -40.590324
-61.179986 -6.951347 -40.609524
-60.768188 -5.135890 -40.641981
-60.790101 -3.183346 -40.634811
-60.089684 -1.459114 -40.693639
-59.673189 0.354859 -40.726525
-59.114733 2.123961 -40.772382
-57.829251 3.663266 -40.884666
-57.704506 5.569455 -40.890895
-56.851169 7.245352 -40.963695
-56.153883 8.970573 -41.022237
-55.315845 10.200795 -41.094835
-53.605682 10.921549 -41.247739
-53.047226 12.690651 -41.293596
-51.761744 14.229956 -41.405880
-50.124130 15.090545 -41.551845
-49.502224 16.737351 -41.603771
-47.928060 17.720236 -41.743667
-46.642578 19.259541 -41.855951
-45.017856 20.144978 -42.000682
-44.125010 21.787614 -42.077147
-42.808894 22.749822 -42.193737
-41.171280 23.610411 -42.339702
-39.619866 24.637145 -42.477422
-38.248184 26.010305 -42.597951
-36.630287 26.908897 -42.742030
-35.135498 28.044773 -42.874334
-33.640708 29.180648 -43.006638
-31.697729 29.452661 -43.181810
-30.153140 30.492551 -43.318877
-28.658350 31.628426 -43.451181
-26.784887 32.034428 -43.619705
-25.170781 32.940329 -43.763421
-23.178002 33.116355 -43.943357
-21.872045 34.616195 -44.057599
-20.188423 35.388107 -44.207965
-18.195644 35.564133 -44.387901
-16.202865 35.740160 -44.567836
-14.617325 36.701120 -44.708820
-12.715296 37.052062 -44.880076
-10.722517 37.228089 -45.060012
-9.227727 38.363965 -45.192316
-7.234948 38.539991 -45.372252
-5.242169 38.716018 -45.552188
-3.249390 38.892045 -45.732124
-1.256611 39.068071 -45.912059
0.244246 40.192254 -46.044944
2.230958 40.379974 -46.224299
3.899831 39.523551 -46.377655
5.892610 39.699578 -46.557591
7.885389 39.875604 -46.737526
9.878168 40.051631 -46.917462
11.870948 40.227658 -47.097398
13.539820 39.371235 -47.250754
15.532600 39.547262 -47.430690
17.525379 39.723289 -47.610625
19.234041 38.993695 -47.767246
21.187031 39.042893 -47.943917
23.179810 39.218919 -48.123853
24.848683 38.362497 -48.277208
26.517556 37.506075 -48.430564
28.510335 37.682101 -48.610500
30.262733 37.091915 -48.770710
32.171987 37.001705 -48.943791
33.840860 36.145283 -49.097147
35.548042 35.410973 -49.253646
37.309812 34.850659 -49.414625
39.071582 34.290345 -49.575604
40.833352 33.730031 -49.736583
42.366085 32.439666 -49.878766
44.178003 32.039198 -50.043861
45.889625 31.319038 -50.200724
47.515748 30.326353 -50.350572
49.184621 29.469931 -50.503927
51.167654 29.634287 -50.683012
52.031629 27.993997 -50.765583
53.610071 26.849328 -50.911518
55.326132 26.143318 -51.068746
56.182827 24.499219 -51.150669
57.715560 23.208853 -51.292852
58.807115 22.297853 -51.394089
60.334025 21.004440 -51.535754
61.866759 19.714075 -51.677938
63.399492 18.423709 -51.820121
64.286761 16.795608 -51.904769
65.788920 15.489245 -52.044228
67.321654 14.198879 -52.186412
67.679448 12.293733 -52.223863
68.359005 10.556948 -52.289996
69.890251 9.876014 -52.430426
70.065084 7.875135 -52.451568
70.482088 6.000970 -52.494297
71.370813 4.373631 -52.579075
71.545646 2.372751 -52.600217
72.676542 0.872126 -52.706582
72.851375 -1.128753 -52.727724
73.026208 -3.129632 -52.748867
73.201041 -5.130511 -52.770009
73.375874 -7.131390 -52.791151
73.550707 -9.132270 -52.812294
72.697370 -10.808166 -52.739494
72.872203 -12.809046 -52.760636
72.167090 -14.531792 -52.701380
72.193699 -16.485821 -52.708979
71.050178 -18.069997 -52.609666
69.764696 -19.609302 -52.497382
69.633688 -21.513511 -52.490580
68.780351 -23.189408 -52.417780
67.737196 -24.237893 -52.326130
67.022688 -25.957670 -52.266015
66.340702 -27.237217 -52.207675
64.982671 -28.636687 -52.088452
64.411689 -30.401830 -52.041450
62.935492 -31.553358 -51.910871
61.625857 -32.845110 -51.795743
60.590531 -33.896069 -51.704808
59.305049 -35.435374 -51.592524
58.019567 -36.974679 -51.480240
56.540703 -38.141250 -51.349459
54.744339 -38.695857 -51.188310
53.458857 -40.235162 -51.076026
52.173375 -41.774467 -50.963743
50.561545 -42.684753 -50.820244
49.250279 -44.174361 -50.705494
47.571966 -44.956504 -50.555636
45.622919 -45.216823 -50.379883
44.084397 -46.268406 -50.243396
42.927380 -47.688643 -50.142426
41.675986 -48.488822 -50.031264
39.683207 -48.664848 -49.851329
38.161876 -49.749566 -49.716486
36.195639 -49.976751 -49.539089
34.534516 -50.792028 -49.390875
32.896902 -51.652617 -49.244911
31.213280 -52.424529 -49.094545
29.269542 -52.695080 -48.919300
27.725712 -53.736431 -48.782305
25.732933 -53.912458 -48.602370
23.740153 -54.088484 -48.422434
22.245364 -55.224360 -48.290130
20.252585 -55.400387 -48.110194
18.259805 -55.576413 -47.930258
16.267026 -55.752440 -47.750322
14.407971 -56.186213 -47.583177
12.779458 -57.064342 -47.438083
10.786678 -57.240369 -47.258147
8.793899 -57.416396 -47.078211
-3.987133 -57.891452 -46.390601
-5.497385 -56.780231 -46.250928
-7.490509 -56.636851 -46.070112
-9.483633 -56.493470 -45.889297
-11.267951 -55.931571 -45.726273
-12.987009 -55.238869 -45.568809
-14.980133 -55.095488 -45.387993
-16.557844 -54.119478 -45.242573
-18.483509 -53.840887 -45.067505
-20.198253 -53.139537 -44.910409
-21.986885 -52.586285 -44.747017
-23.980009 -52.442905 -44.566201
-25.490261 -51.331684 -44.426529
-27.137629 -50.495290 -44.275173
-28.993637 -50.077083 -44.106040
-30.503889 -48.965862 -43.966368
-32.427522 -48.683197 -43.791473
-34.007265 -47.711261 -43.645879
-35.517517 -46.600040 -43.506207
-37.510641 -46.456659 -43.325391
-38.302126 -45.112970 -43.250170
-39.949246 -44.276078 -43.098836
-41.459498 -43.164857 -42.959163
-42.909134 -41.932144 -42.824655
-44.480001 -40.942416 -42.679818
-45.990253 -39.831195 -42.540145
-47.516143 -38.751317 -42.399140
-48.824184 -37.234798 -42.276696
-50.132225 -35.718278 -42.154253
-51.440266 -34.201758 -42.031809
-53.058640 -33.307251 -41.882924
-54.397791 -31.853086 -41.757830
-54.982503 -30.094953 -41.700227
-56.290544 -28.578433 -41.577783
-57.598585 -27.061913 -41.455340
-58.183297 -25.303780 -41.397737
-59.498430 -24.359944 -41.276173
-59.694163 -22.471881 -41.253438
-61.002205 -20.955361 -41.130994
-61.586917 -19.197228 -41.073391
-61.994158 -17.379814 -41.031696
-62.033011 -15.439349 -41.023025
-62.730551 -13.718903 -40.955307
-63.202435 -11.923083 -40.907818
-63.466944 -10.057992 -40.878918
-63.648530 -8.165203 -40.857452
-64.203337 -6.397081 -40.802529
-64.060062 -4.395779 -40.810183
-63.879836 -2.413057 -40.821232
-62.809727 -0.877788 -40.914030
-62.666452 1.123514 -40.921684
-62.523178 3.124816 -40.929338
-61.416117 4.641505 -41.025530
-61.272843 6.642807 -41.033184
-60.949362 8.553497 -41.057393
-60.022507 10.160797 -41.137031
-58.609537 11.523668 -41.261324
-57.780375 13.180090 -41.331987
-56.269713 14.493839 -41.465256
-55.440551 16.150261 -41.535919
-53.929889 17.464010 -41.669187
-53.002139 18.822678 -41.749566
-51.349608 19.707954 -41.896815
-50.244065 21.225406 -41.992868
-48.769327 21.951899 -42.124444
-47.258665 23.265648 -42.257712
-45.748003 24.579396 -42.390981
-44.237341 25.893145 -42.524249
-42.726679 27.206894 -42.657517
-41.039621 27.987891 -42.808170
-39.464898 29.108165 -42.947751
-37.733487 29.755209 -43.102775
-36.203117 31.009436 -43.237985
-34.451998 31.596958 -43.394951
-32.774287 32.406186 -43.544682
-31.121221 33.289846 -43.691984
-29.439099 34.085751 -43.842150
-27.687980 34.673273 -43.999116
-25.821964 34.913783 -44.167405
-24.185742 35.848317 -44.313047
-22.515830 36.681102 -44.462010
-20.522706 36.537721 -44.642825
-18.529582 36.394340 -44.823641
-16.876515 37.277999 -44.970943
-15.189690 38.059701 -45.121573
-13.230325 38.018278 -45.299061
-11.237201 37.874897 -45.479877
-9.455420 38.369814 -45.639864
-7.591010 38.615176 -45.807995
-5.937943 39.498835 -45.955297
-3.944819 39.355454 -46.136113
-1.951695 39.212074 -46.316928
0.041429 39.068693 -46.497744
2.034553 38.925313 -46.678559
3.764241 39.577561 -46.833413
5.680744 39.665591 -47.006677
7.673868 39.522210 -47.187493
9.666992 39.378830 -47.368308
11.418680 38.751529 -47.528553
13.170368 38.124229 -47.688797
15.163492 37.980848 -47.869612
17.156616 37.837467 -48.050428
19.040941 37.476015 -48.221973
20.659992 36.582866 -48.370916
22.653116 36.439485 -48.551731
24.646241 36.296105 -48.732547
26.156492 35.184884 -48.872220
28.149617 35.041503 -49.053035
29.659868 33.930283 -49.192708
31.652993 33.786902 -49.373523
33.261135 32.871887 -49.521537
34.910618 32.039734 -49.673073
36.560102 31.207581 -49.824608
38.176872 30.309859 -49.973357
39.859069 29.543274 -50.127680
41.508552 28.711121 -50.279216
43.158036 27.878967 -50.430752
44.700752 26.832817 -50.573191
46.211004 25.721596 -50.712863
47.765044 24.698141 -50.856267
49.414527 23.865988 -51.007803
51.064011 23.033834 -51.159338
52.734884 22.244553 -51.312697
53.639648 21.127914 -51.397570
54.947689 19.611395 -51.520013
56.255731 18.094875 -51.642457
57.711120 16.873690 -51.777455
58.489926 15.504589 -51.851596
60.117559 14.665137 -52.001173
60.724122 12.914302 -52.060735
61.918723 11.930205 -52.171495
62.958317 10.324016 -52.269874
64.544061 9.364107 -52.415979
64.599555 7.535665 -52.425860
65.777224 5.975597 -52.536617
67.085266 4.459077 -52.659060
67.669978 2.700944 -52.716663
68.118225 0.897228 -52.762034
68.839402 -0.815322 -52.831870
69.877560 -2.421990 -52.930121
70.008826 -4.331588 -52.947077
70.613953 -6.082901 -53.006510
70.470678 -8.084204 -52.998856
70.327404 -10.085506 -52.991201
70.184129 -12.086808 -52.983547
71.063797 -13.746417 -53.067590
70.920522 -15.747719 -53.059936
70.777248 -17.749021 -53.052282
69.670187 -19.265709 -52.956090
69.526913 -21.267011 -52.948436
69.383638 -23.268313 -52.940781
68.417292 -24.855757 -52.857516
68.133303 -26.786304 -52.836935
66.758968 -28.168601 -52.716190
65.919182 -29.819681 -52.644551
65.775907 -31.820983 -52.636897
64.271481 -33.137868 -52.504202
62.760820 -34.451617 -52.370933
61.931657 -36.108039 -52.300270
60.420995 -37.421788 -52.167002
58.910333 -38.735537 -52.033734
57.399671 -40.049286 -51.900465
55.889010 -41.363035 -51.767197
54.378348 -42.676783 -51.633929
52.867686 -43.990532 -51.500660
51.357024 -45.304281 -51.367392
49.605905 -45.891803 -51.210427
48.095243 -47.205552 -51.077158
46.584581 -48.519301 -50.943890
44.923598 -49.379052 -50.795807
43.270532 -50.262711 -50.648505
41.571681 -51.008094 -50.496690
39.820562 -51.595616 -50.339725
38.069443 -52.183138 -50.182759
36.318208 -52.770308 -50.025782
34.567205 -53.358182 -49.868828
32.672017 -53.510586 -49.697664
31.064967 -54.533226 -49.554896
29.365884 -55.277904 -49.403059
27.562730 -55.708270 -49.240965
25.719693 -56.018183 -49.074941
23.726569 -55.874802 -48.894125
22.068916 -56.744610 -48.746371
20.080378 -56.615081 -48.566007
18.326221 -57.193427 -48.408742
16.434187 -57.355359 -48.237889
14.441063 -57.211979 -48.057074
12.787997 -58.095638 -47.909771
10.794872 -57.952257 -47.728956
8.801748 -57.808877 -47.548140
6.808624 -57.665496 -47.367325
5.106561 -58.401175 -47.215194
3.162434 -58.405775 -47.039207
1.445574 -57.708666 -46.881930
-0.340942 -57.151173 -46.718719
-1.995557 -58.030157 -46.571264
2.616498 -19.162513 51.507923
0.934055 -18.331920 51.620672
-1.059071 -18.537948 51.711843
-3.052197 -18.743976 51.803013
-5.045324 -18.950004 51.894183
-7.038450 -19.156032 51.985354
-8.720893 -18.325439 52.098103
-10.667378 -18.375843 52.192512
-12.396462 -17.700874 52.302022
-14.078905 -16.870281 52.414771
-15.983861 -16.782124 52.512065
-17.754474 -16.245716 52.618690
-19.528184 -15.719646 52.725100
-21.119359 -14.584531 52.844188
-22.852820 -13.924165 52.953393
-24.405294 -12.659924 53.075169
-26.166687 -12.092752 53.182434
-27.729930 -10.864443 53.303462
-29.282405 -9.600202 53.425238
-30.625160 -8.222610 53.540687
-31.714278 -6.707931 53.648484
-33.266752 -5.443690 53.770260
-34.146150 -3.815661 53.871730
-35.242273 -2.304768 53.979738
-36.396552 -0.825308 54.089501
-36.598956 1.168627 54.170548
-37.663742 2.696457 54.277611
-37.955639 4.642023 54.361357
-38.158043 6.635958 54.442404
-38.360447 8.629893 54.523450
-38.562852 10.623827 54.604497
-38.109114 12.421932 54.646136
-37.932191 14.302653 54.704401
-37.099125 15.987544 54.723258
-36.506981 17.744339 54.756584
-35.432995 19.357325 54.760972
-34.706705 21.074084 54.786242
-33.440474 22.629693 54.779083
-32.174242 24.185301 54.771925
-30.908010 25.740910 54.764766
-30.232200 27.472735 54.793068
-28.745341 28.397822 54.752540
-27.479109 29.953431 54.745381
-25.850485 30.836207 54.696338
-24.221860 31.718983 54.647296
-22.593236 32.601759 54.598253
-21.047878 33.639132 54.558834
-19.335986 34.367312 54.500168
-17.574126 35.002717 54.435727
-16.078737 36.132864 54.402083
-14.100374 36.366301 54.312619
-12.619748 37.523858 54.280681
-10.626622 37.729886 54.189511
-8.633495 37.935914 54.098341
-6.640369 38.141942 54.007170
-4.647243 38.347970 53.916000
-2.654116 38.553998 53.824830
-0.660990 38.760026 53.733659
1.332137 38.966054 53.642489
3.325263 39.172082 53.551319
5.184586 38.931664 53.450855
7.000832 38.547517 53.347399
8.948595 38.602187 53.253078
10.676401 37.922952 53.143480
12.358844 37.092359 53.030731
14.351970 37.298387 52.939561
16.256927 37.210231 52.842267
18.027539 36.673822 52.735642
18.908486 35.050962 52.634279
20.680648 34.519722 52.527762
22.452809 33.988483 52.421244
24.005283 32.724242 52.299468
25.557758 31.460000 52.177693
27.229432 30.593475 52.064196
28.209317 29.300731 51.969705
29.761792 28.036490 51.847929
31.314267 26.772249 51.726153
32.866741 25.508008 51.604377
33.409187 23.697860 51.513072
34.563465 22.218400 51.403310
35.504935 20.623920 51.299967
35.920148 18.745004 51.212500
36.122552 16.751070 51.131453
37.276830 15.271609 51.021691
37.479235 13.277674 50.940644
37.462925 11.349016 50.872733
36.848574 9.598848 50.840740
37.050978 7.604914 50.759694
36.217913 5.920023 50.740837
36.058935 4.033945 50.681494
35.587252 2.241197 50.640933
34.990847 0.485673 50.607862
33.724615 -1.069935 50.615021
32.458383 -2.625544 50.622179
31.219522 -4.189322 50.627694
30.295714 -5.282456 50.634406
29.029482 -6.838065 50.641565
27.763251 -8.393673 50.648723
26.932762 -9.617419 50.646169
25.452136 -10.774976 50.678106
23.971511 -11.932533 50.710044
21.980940 -12.143305 50.800919
20.497759 -13.296118 50.833152
19.017133 -14.453675 50.865089
17.095066 -14.791634 50.948047
15.543381 -15.817259 50.988197
13.837817 -16.557186 51.046132
12.069629 -17.180844 51.111305
10.076503 -17.386872 51.202475
8.083376 -17.592900 51.293645
6.598533 -18.742626 51.326070
4.609624 -18.956485 51.416753
-3.331783 -18.179428 51.048767
-4.817019 -17.033101 51.163019
-6.810897 -16.842166 51.268370
-8.804776 -16.651232 51.373721
-10.798654 -16.460298 51.479072
-12.283890 -15.313970 51.593323
-14.203612 -14.983746 51.699972
-15.763004 -13.976708 51.812926
-17.467890 -13.242954 51.923333
-19.242118 -12.639446 52.032528
-20.732169 -11.502161 52.146695
-22.212590 -10.346790 52.261030
-23.697826 -9.200463 52.375282
-25.268922 -8.215408 52.488031
-26.541396 -6.669446 52.606005
-28.153533 -5.761480 52.718036
-29.446010 -4.253089 52.835660
-30.718485 -2.707127 52.953634
-31.990959 -1.161166 53.071608
-33.585834 -0.220776 53.183941
-33.504539 1.681400 53.247696
-34.344414 3.359909 53.349012
-35.184290 5.038417 53.450327
-35.787829 6.789338 53.542541
-35.829837 8.712311 53.613132
-36.138902 10.553458 53.694007
-36.475385 12.386204 53.775937
-36.281058 14.381589 53.837427
-36.086730 16.376974 53.898916
-35.892403 18.372359 53.960406
-34.819160 19.900378 53.961803
-34.549806 21.855868 54.018163
-33.401537 23.343991 54.014430
-32.253268 24.832114 54.010698
-32.058941 26.827499 54.072187
-30.907265 27.700877 54.046383
-29.359969 28.976817 54.015368
-28.670887 30.709114 54.043031
-27.391806 31.514745 54.008516
-25.844511 32.790684 53.977501
-24.074566 33.335296 53.909425
-22.527271 34.611235 53.878411
-20.928751 35.718918 53.838869
-19.210031 36.431786 53.779320
-17.440086 36.976398 53.711244
-15.670141 37.521009 53.643168
-13.897858 38.057941 53.574703
-12.130252 38.610233 53.507016
-10.360307 39.154845 53.438940
-8.545971 39.553645 53.363475
-6.552092 39.362710 53.258124
-4.827824 40.057352 53.197651
-2.879209 40.015095 53.099834
-0.885331 39.824161 52.994483
0.927309 40.228532 52.919300
2.787552 40.476546 52.836194
4.633490 40.007731 52.728254
6.266666 39.139283 52.616591
8.260545 38.948349 52.511240
10.254423 38.757415 52.405889
12.241040 38.552842 52.300411
13.733537 37.420153 52.186287
15.727416 37.229218 52.080936
17.212652 36.082891 51.966685
19.129262 35.746822 51.859982
20.691766 34.745629 51.747082
22.393540 34.006029 51.636620
24.025679 33.135633 51.524939
25.656116 32.262039 51.413229
26.930293 30.719276 51.295284
28.562432 29.848879 51.183604
29.834907 28.302918 51.065629
31.107382 26.756957 50.947655
32.573653 25.575007 50.833072
33.280703 24.116534 50.746161
34.553178 22.570572 50.628187
35.653154 21.537123 50.536999
36.493029 19.858614 50.435684
37.267682 18.160122 50.336880
37.808865 16.390095 50.247067
39.012656 14.823089 50.131738
38.818328 12.827704 50.070248
38.624000 10.832319 50.008758
38.511011 8.861856 49.944136
39.269548 7.158426 49.845953
39.075221 5.163040 49.784464
37.926952 3.674917 49.788196
37.732624 1.679532 49.726707
37.328084 -0.204071 49.679590
36.390028 -1.803976 49.668950
35.241759 -3.292099 49.672682
34.598373 -4.741912 49.652826
33.001974 -5.685591 49.698106
32.067111 -7.287194 49.687248
30.519816 -8.563133 49.718262
28.972521 -9.839073 49.749277
27.425225 -11.115012 49.780292
25.877930 -12.390951 49.811307
24.330635 -13.666891 49.842321
22.560690 -14.211502 49.910397
20.790745 -14.756114 49.978473
19.020801 -15.300726 50.046549
17.341384 -16.142692 50.099556
15.662380 -16.986011 50.152495
13.710967 -16.934561 50.250777
11.989497 -17.638396 50.310784
10.171077 -18.023784 50.386929
8.316614 -18.290781 50.469074
6.322735 -18.099847 50.574425
4.328857 -17.908912 50.679776
2.645999 -18.739576 50.733356
0.655974 -18.561297 50.838065
-1.337904 -18.370363 50.943416
2.415743 -47.846942 13.796413
0.745751 -47.015164 14.006854
-1.236237 -47.219830 14.213784
-3.218224 -47.424497 14.420714
-4.888216 -46.592719 14.631154
-6.828775 -46.659759 14.838550
-8.540196 -45.965607 15.048524
-10.350091 -45.598584 15.257391
-12.110749 -45.067996 15.466811
-13.862168 -44.506716 15.676335
-15.532160 -43.674937 15.886776
-17.202152 -42.843158 16.097216
-18.932767 -42.212768 16.306974
-20.693425 -41.682180 16.516395
-22.454083 -41.151593 16.725815
-24.194116 -40.552489 16.935467
-25.754785 -39.357540 17.147138
-27.294829 -38.094074 17.359040
-28.834873 -36.830609 17.570943
-30.374917 -35.567144 17.782845
-31.914961 -34.303678 17.994748
-33.455005 -33.040213 18.206650
-35.080606 -32.436473 18.404097
-35.276570 -30.444996 18.496843
-35.611942 -28.529029 18.601947
-37.151986 -27.265564 18.813850
-37.762200 -25.498463 18.943320
-38.890170 -24.011800 19.118691
-39.102997 -22.029458 19.212931
-39.957401 -20.394620 19.364049
-40.443794 -18.560452 19.482542
-40.639758 -16.568976 19.575288
-40.835721 -14.577499 19.668033
-41.031685 -12.586022 19.760779
-40.197739 -10.904159 19.731050
-40.393703 -8.912682 19.823795
-40.461765 -6.959655 19.901331
-39.198856 -5.406747 19.820590
-38.664202 -3.634910 19.826452
-38.087830 -1.875614 19.827353
-36.866638 -0.310164 19.751573
-36.331984 1.461673 19.757435
-35.069075 3.014581 19.676695
-33.806165 4.567489 19.595954
-32.543256 6.120397 19.515213
-31.280346 7.673305 19.434473
-29.658480 8.553184 19.290739
-28.395570 10.106092 19.209999
-27.132660 11.659000 19.129258
-25.510794 12.538879 18.985525
-24.034803 13.692267 18.867391
-22.267061 14.298636 18.698058
-21.004151 15.851544 18.617318
-19.104124 16.209882 18.424771
-17.629778 17.366356 18.306926
-16.138552 18.491180 18.186118
-14.173445 18.727497 17.982151
-12.191457 18.932163 17.775221
-10.717111 20.088637 17.657375
-8.933172 20.664637 17.485201
-7.260778 21.449778 17.332600
-5.278791 21.654445 17.125670
-3.296803 21.859112 16.918740
-1.314816 22.063779 16.711810
0.253030 23.044943 16.577557
2.141518 23.424919 16.387035
4.123505 23.629586 16.180105
5.940197 23.285143 15.971315
7.775485 23.002474 15.762735
9.757472 23.207141 15.555805
11.739460 23.411808 15.348875
13.424057 22.628548 15.138599
15.391439 22.784696 14.931504
17.165987 22.300250 14.722240
19.043419 22.157584 14.514134
20.907917 21.971953 14.305882
22.695399 21.530472 14.096764
24.429233 20.910777 13.887042
26.347378 20.903360 13.679393
27.950549 19.849602 13.468201
29.687363 19.239803 13.258512
31.471865 18.788427 13.049360
33.011909 17.524961 12.837458
34.551953 16.261496 12.625555
36.312611 15.730908 12.416135
37.852655 14.467443 12.204233
39.613313 13.936855 11.994812
41.153357 12.673390 11.782910
42.565960 11.340897 11.582305
43.562493 9.783043 11.418587
44.798324 8.968186 11.255694
46.192243 7.625573 11.056746
47.944136 7.065870 10.847227
48.175520 5.117947 10.752217
49.020132 3.477806 10.601967
49.889224 1.850924 10.449547
50.661150 0.171413 10.305740
50.956455 -1.766256 10.204188
52.001947 -3.297592 10.036129
52.197911 -5.289068 9.943384
52.393874 -7.280545 9.850638
52.589838 -9.272022 9.757893
52.785802 -11.263498 9.665147
52.433166 -13.090054 9.637640
52.147820 -14.936839 9.602131
51.363859 -16.633729 9.625916
51.509838 -18.610180 9.539115
50.675893 -20.292043 9.568844
49.841947 -21.973907 9.598573
49.225243 -23.721079 9.602468
48.437546 -25.018471 9.641012
47.282807 -26.437153 9.714881
46.534069 -28.144632 9.734478
44.912202 -29.024511 9.878211
44.377548 -30.796348 9.872349
42.755682 -31.676227 10.016082
41.492772 -33.229135 10.096823
40.871122 -34.837857 10.106228
38.977295 -35.207822 10.297686
37.714385 -36.760730 10.378427
36.448084 -38.307279 10.459763
34.470653 -38.520487 10.665893
32.991751 -39.668419 10.784538
31.226920 -40.280245 10.953360
30.622630 -41.921519 10.959718
28.640643 -42.126185 11.166648
26.658655 -42.330852 11.373578
25.108753 -43.345660 11.504682
23.486886 -44.225539 11.648416
21.727976 -44.848467 11.816198
19.745989 -45.053134 12.023128
17.903373 -45.519117 12.205600
16.289655 -46.414274 12.347903
14.307668 -46.618941 12.554833
12.325681 -46.823608 12.761763
10.343693 -47.028275 12.968693
8.361706 -47.232942 13.175623
6.379718 -47.437609 13.382553
4.397731 -47.642275 13.589483
-6.233018 -47.140508 13.874094
-7.695892 -45.980700 14.073928
-9.675849 -45.771538 14.295509
-11.438041 -45.162018 14.507931
-13.118681 -44.402568 14.716924
-15.098638 -44.193405 14.938504
-16.643064 -43.183528 15.141768
-18.541470 -42.824435 15.359919
-20.234957 -42.088603 15.569452
-21.482455 -40.532830 15.760229
-23.095585 -39.649264 15.966383
-24.708715 -38.765698 16.172536
-26.321845 -37.882132 16.378690
-27.835801 -36.816235 16.580673
-29.182473 -35.442793 16.775620
-30.429971 -33.887020 16.966397
-31.680874 -32.895703 17.137260
-32.591246 -31.287523 17.293472
-34.173309 -30.346840 17.498319
-35.420807 -28.791066 17.689096
-36.668304 -27.235293 17.879873
-37.185382 -25.462245 17.999487
-38.432879 -23.906471 18.190264
-39.530586 -22.306140 18.366447
-40.197454 -20.577650 18.500655
-40.132099 -18.631347 18.563525
-41.231609 -17.031553 18.739884
-41.766582 -15.263828 18.861241
-41.550853 -13.272794 18.909461
-42.368094 -11.589035 19.058319
-42.152365 -9.598001 19.106538
-41.936636 -7.606968 19.154757
-41.720907 -5.615935 19.202976
-41.505178 -3.624902 19.251195
-40.345691 -2.149964 19.178834
-40.014375 -0.222139 19.212285
-38.970475 1.316008 19.154693
-37.810988 2.790946 19.082332
-37.595259 4.781979 19.130551
-36.473389 6.277488 19.062996
-35.588142 7.902395 19.025674
-34.035557 9.162368 18.903089
-32.482973 10.422341 18.780504
-30.930388 11.682313 18.657919
-29.377804 12.942286 18.535334
-28.478960 14.520451 18.494862
-26.513297 14.360426 18.276593
-24.960712 15.620399 18.154008
-23.408128 16.880372 18.031423
-21.765952 17.832367 17.888085
-19.876283 17.933578 17.687419
-18.323699 19.193550 17.564834
-16.429492 19.279162 17.363116
-14.751240 20.107141 17.211422
-13.025932 20.773359 17.048828
-11.093031 20.725957 16.838148
-9.414779 21.553936 16.686453
-7.514827 21.619798 16.483405
-5.756570 22.172753 16.313179
-3.776613 21.963590 16.091598
-2.003722 22.466237 15.917982
-0.118404 22.582407 15.718324
1.861553 22.373244 15.496743
3.841510 22.164081 15.275163
5.821467 21.954919 15.053583
7.801424 21.745756 14.832002
9.781382 21.536594 14.610422
11.761339 21.327431 14.388842
13.741296 21.118268 14.167261
15.721253 20.909106 13.945681
17.701210 20.699943 13.724100
19.681167 20.490781 13.502520
21.077726 19.209053 13.305474
22.606917 18.171166 13.102851
24.586874 17.962003 12.881270
26.282749 17.230563 12.671637
27.895880 16.346997 12.465483
29.492580 15.433226 12.260021
30.955455 14.273418 12.060186
32.735270 13.696299 11.847023
34.348400 12.812734 11.640869
35.861161 11.744641 11.438937
37.209028 10.373394 11.243939
38.786911 9.425026 11.039267
39.772897 8.409224 10.896166
40.952366 6.833214 10.712017
42.565496 5.949648 10.505864
43.812994 4.393875 10.315087
44.330072 2.620827 10.195472
45.889135 1.637861 9.991592
47.190699 0.181487 9.798542
47.707777 -1.591561 9.678927
48.502934 -3.281890 9.532221
49.472352 -4.920383 9.368536
50.137417 -6.649410 9.234504
49.921688 -8.640443 9.186285
50.738929 -10.324203 9.037427
51.540662 -12.012576 8.890079
51.340442 -13.998996 8.840349
51.124713 -15.990029 8.792130
50.908984 -17.981062 8.743911
50.693255 -19.972095 8.695692
50.477526 -21.963129 8.647473
50.261797 -23.954162 8.599254
49.377640 -25.579665 8.636437
48.492394 -27.204572 8.673759
47.727094 -28.895071 8.695756
46.721900 -30.454385 8.748404
45.408120 -31.844948 8.840478
44.284069 -33.339265 8.908311
43.398822 -34.964172 8.945633
41.846238 -36.224145 9.068218
40.293653 -37.484117 9.190803
38.741069 -38.744090 9.313388
36.975146 -39.270693 9.485390
35.467276 -40.555118 9.602262
34.308986 -41.370669 9.698187
32.558055 -41.948806 9.866716
31.005471 -43.208779 9.989301
29.274231 -43.854606 10.153270
27.595979 -44.682585 10.304964
25.917727 -45.510564 10.456658
23.941781 -45.315190 10.677309
22.259518 -46.129380 10.829933
20.409936 -46.368396 11.021313
18.644014 -46.894999 11.193315
16.923057 -47.576176 11.354901
14.943100 -47.367013 11.576482
13.264848 -48.194992 11.728176
11.284891 -47.985830 11.949756
9.304934 -47.776667 12.171337
7.621804 -48.587877 12.324161
5.646725 -48.395484 12.544611
3.666768 -48.186321 12.766192
1.686811 -47.977158 12.987772
-0.293146 -47.767996 13.209353
-2.273103 -47.558833 13.430933
-4.253060 -47.349671 13.652513
5.395027 -48.190447 14.108911
3.716182 -47.357062 14.320366
1.723726 -47.559636 14.528503
-0.268731 -47.762209 14.736640
-1.947576 -46.928825 14.948096
-3.887000 -46.956216 15.156794
-5.618877 -46.298013 15.367688
-7.422406 -45.876497 15.577824
-9.290179 -45.667202 15.787280
-10.969024 -44.833818 15.998736
-12.947271 -44.989452 16.207023
-14.493217 -43.717060 16.419884
-16.260919 -43.177200 16.630399
-17.998015 -42.536237 16.841238
-19.676860 -41.702853 17.052694
-21.355705 -40.869468 17.264149
-22.438458 -39.922870 17.415225
-24.133735 -39.143764 17.626507
-25.512592 -38.594242 17.795328
-26.911764 -37.418061 17.988864
-27.944482 -36.306181 18.140470
-29.490428 -35.033789 18.353331
-30.979888 -33.730916 18.561181
-31.910805 -32.126644 18.719473
-33.266901 -30.751806 18.915490
-34.331181 -29.219500 19.085615
-35.553913 -27.772696 19.269799
-35.747754 -25.770688 19.362693
-36.891260 -24.281133 19.539848
-37.085101 -22.279125 19.632742
-38.031820 -20.683381 19.792436
-38.422447 -18.787562 19.902791
-38.616288 -16.785554 19.995685
-38.810129 -14.783545 20.088579
-37.974552 -13.092777 20.058994
-38.168392 -11.090768 20.151888
-38.090122 -9.171032 20.212407
-37.526656 -7.397992 20.215197
-37.002312 -5.613123 20.222642
-36.458407 -3.834168 20.227759
-35.186594 -2.275294 20.146270
-35.213764 -0.323677 20.219334
-34.098783 1.282615 20.156505
-32.826970 2.841490 20.075016
-31.555156 4.400365 19.993528
-30.283343 5.959240 19.912039
-28.653626 6.844515 19.767651
-28.085071 8.616017 19.769835
-26.480004 9.508746 19.628380
-25.149230 10.956653 19.536529
-23.578474 11.952896 19.402503
-22.176620 13.267026 19.298161
-20.676944 14.397047 19.176626
-19.047227 15.282323 19.032238
-17.417510 16.167599 18.887850
-15.725247 16.935158 18.732470
-13.800174 17.264551 18.536175
-12.246486 18.292918 18.405149
-10.540741 19.035103 18.247399
-8.767724 19.650678 18.077827
-6.775267 19.853251 17.869690
-5.288962 21.008438 17.750506
-3.296505 21.211011 17.542369
-1.304048 21.413585 17.334232
0.688408 21.616158 17.126095
2.298889 22.537639 16.985087
4.167170 22.973918 16.798773
5.846015 22.140533 16.587318
7.838472 22.343107 16.379181
9.830929 22.545681 16.171044
11.823385 22.748254 15.962907
13.815842 22.950828 15.754769
15.512600 22.176615 15.543504
17.487144 22.320017 15.335177
19.269762 21.829429 15.124820
21.158445 21.689205 14.915585
22.837290 20.855821 14.704130
24.794627 20.942384 14.495621
26.508592 20.225010 14.284537
28.330033 19.862665 14.074591
30.097735 19.322806 13.864076
31.858738 18.760814 13.653490
33.411384 17.510554 13.440699
35.179087 16.970694 13.230184
36.895273 16.260660 13.019124
38.492735 15.158443 12.806808
40.252963 14.593890 12.596214
41.931808 13.760506 12.384758
42.902571 12.443972 12.232497
44.448517 11.171580 12.019636
45.994463 9.899187 11.806774
46.893876 8.277916 11.651277
48.414839 6.992043 11.440633
49.960785 5.719650 11.227771
50.324395 3.809252 11.119814
51.467901 2.319697 10.942659
51.912562 0.453035 10.827511
52.805248 -1.171866 10.672611
53.661424 -2.816468 10.520950
54.142595 -4.663429 10.402562
54.336436 -6.665437 10.309667
54.530276 -8.667446 10.216773
54.724117 -10.669454 10.123879
54.917958 -12.671462 10.030984
54.082380 -14.362231 10.060570
54.276221 -16.364239 9.967676
54.276424 -18.307702 9.897820
53.634484 -20.057016 9.904367
52.460705 -21.645531 9.974192
51.916800 -23.424485 9.969074
50.644987 -24.983360 10.050563
50.101082 -26.762315 10.045446
48.829268 -28.321189 10.126935
47.557454 -29.880064 10.208424
46.285641 -31.438939 10.289912
45.013827 -32.997814 10.371401
43.384111 -33.883090 10.515789
42.840206 -35.662044 10.510672
41.194950 -36.518074 10.657791
39.222869 -36.758997 10.862347
37.951055 -38.317872 10.943836
36.229882 -39.031020 11.104297
34.691622 -40.088423 11.232612
33.061905 -40.973699 11.377000
31.264815 -41.543966 11.550803
29.778510 -42.699152 11.669987
28.172755 -43.629527 11.810164
26.299748 -44.056912 11.997308
24.307291 -44.259486 12.205446
22.820986 -45.414672 12.324630
20.828529 -45.617246 12.532767
18.950463 -46.035109 12.720801
17.349767 -46.975005 12.860088
15.357311 -47.177579 13.068226
13.364854 -47.380153 13.276363
11.372397 -47.582726 13.484500
9.379941 -47.785300 13.692637
7.387484 -47.987873 13.900774
-13.940120 -21.821291 -82.574517
-15.422993 -20.671126 -82.572104
-17.415359 -20.475440 -82.538718
-19.407725 -20.279754 -82.505331
-20.890599 -19.129589 -82.502918
-22.817134 -18.810576 -82.473534
-24.365838 -17.783738 -82.467119
-26.358204 -17.588052 -82.433733
-28.071289 -16.869163 -82.417325
-29.833443 -16.242200 -82.397934
-31.333882 -15.124942 -82.394453
-32.965178 -14.252831 -82.383017
-34.596475 -13.380720 -82.371580
-36.227771 -12.508610 -82.360144
-37.757303 -11.445853 -82.354895
-39.240176 -10.295688 -82.352482
-41.232542 -10.100002 -82.319095
-42.020830 -8.797858 -82.333239
-43.615389 -7.856922 -82.324037
-44.191031 -6.156409 -82.351108
-45.822327 -5.284298 -82.339672
-47.093358 -3.737268 -82.350137
-48.364389 -2.190239 -82.360602
-49.937363 -1.208868 -82.352711
-50.534590 0.451211 -82.378470
-51.852271 1.418550 -82.375104
-52.692798 3.096301 -82.396647
-53.243694 4.861999 -82.425643
-54.584045 6.279164 -82.431894
-55.413894 7.503448 -82.443512
-56.111917 9.224471 -82.468722
-55.917060 11.216615 -82.516908
-56.757587 12.894366 -82.538451
-56.562731 14.886511 -82.586637
-56.367874 16.878655 -82.634823
-56.450936 18.786409 -82.675857
-57.013545 20.548550 -82.704552
-56.818688 22.540694 -82.752738
-56.623831 24.532839 -82.800924
-56.428974 26.524983 -82.849110
-55.279356 28.007266 -82.904001
-54.129738 29.489550 -82.958893
-53.934881 31.481694 -83.007079
-52.960389 33.057498 -83.060741
-52.590406 34.956122 -83.110157
-50.994791 35.586955 -83.154484
-50.348178 37.337853 -83.205843
-49.251828 38.848583 -83.260361
-48.048941 40.302420 -83.315627
-46.611112 41.017515 -83.358846
-45.064512 42.287802 -83.416526
-43.517912 43.558090 -83.474206
-41.971312 44.828378 -83.531887
-40.416923 46.073048 -83.589142
-38.655478 46.636784 -83.635113
-37.644797 47.809817 -83.680466
-35.967284 48.649576 -83.731011
-34.245527 49.343833 -83.779145
-32.476293 49.881951 -83.824692
-30.707058 50.420068 -83.870239
-28.942379 50.973167 -83.916033
-27.264866 51.812926 -83.966579
-25.399355 52.034422 -84.006879
-23.630120 52.572539 -84.052425
-21.917474 53.296758 -84.101056
-20.091651 53.648775 -84.143519
-18.247595 53.940831 -84.184988
-16.553182 54.725010 -84.234612
-14.577717 54.584904 -84.268919
-12.585351 54.389218 -84.302305
-10.592985 54.193532 -84.335691
-8.808340 54.680971 -84.380398
-6.923106 54.837605 -84.419623
-4.930740 54.641919 -84.453009
-2.938374 54.446233 -84.486395
-0.946008 54.250547 -84.519781
1.046358 54.054861 -84.553167
3.038724 53.859176 -84.586553
5.031089 53.663490 -84.619940
7.023455 53.467804 -84.653326
9.015821 53.272118 -84.686712
10.498695 52.121953 -84.689125
12.491061 51.926267 -84.722511
14.483426 51.730581 -84.755897
16.067398 50.769812 -84.764456
17.958666 50.384729 -84.791696
19.441539 49.234564 -84.794110
21.433905 49.038878 -84.827496
22.952850 47.956289 -84.832102
24.584146 47.084178 -84.843538
26.392018 46.542862 -84.865708
27.874891 45.392696 -84.868121
29.478036 44.467846 -84.877846
31.109333 43.595736 -84.889282
32.740629 42.723625 -84.900718
34.315877 41.746514 -84.908747
35.642957 40.304485 -84.901689
37.274253 39.432374 -84.913125
38.545284 37.885345 -84.902660
39.816315 36.338315 -84.892195
41.087346 34.791286 -84.881730
42.358377 33.244256 -84.871265
43.589687 32.250690 -84.872409
44.528577 30.602807 -84.853397
45.799608 29.055777 -84.842932
47.070639 27.508748 -84.832466
47.609543 25.739409 -84.803162
48.148447 23.970070 -84.773857
49.419478 22.423041 -84.763392
49.473378 20.506431 -84.721608
49.765159 18.662054 -84.685944
50.119049 16.836536 -84.651879
49.924192 14.844392 -84.603693
49.917616 12.909419 -84.560352
50.569863 11.174496 -84.533964
50.375006 9.182352 -84.485778
49.606536 7.496528 -84.433563
49.030531 5.707924 -84.382700
48.835674 3.715780 -84.334514
48.342329 1.883035 -84.284231
47.470847 0.252221 -84.231293
46.341581 -1.240931 -84.176544
45.727884 -3.009406 -84.125416
44.181284 -4.279694 -84.067736
42.892726 -5.687781 -84.011868
41.763203 -7.180796 -83.957118
40.891722 -8.811610 -83.904179
39.345122 -10.081898 -83.846499
37.635044 -10.814562 -83.797728
36.246881 -12.006502 -83.744801
34.935171 -12.788947 -83.702467
33.388571 -14.059235 -83.644787
31.619337 -14.597352 -83.599241
30.072737 -15.867640 -83.541560
28.303502 -16.405758 -83.496014
27.373106 -17.842822 -83.446286
25.440152 -17.842519 -83.409662
23.703228 -18.486895 -83.362355
21.901683 -18.918755 -83.318569
20.348202 -20.166413 -83.261264
18.585848 -20.727160 -83.215342
16.678323 -20.810486 -83.177332
14.824744 -21.071226 -83.136382
13.055510 -21.609344 -83.090835
11.330931 -22.294318 -83.042855
9.338565 -22.098632 -83.009469
7.346199 -21.902947 -82.976083
5.668686 -22.742705 -82.925537
3.676320 -22.547020 -82.892151
1.683954 -22.351334 -82.858765
0.002964 -23.179658 -82.808409
-1.985925 -22.995407 -82.774834
-3.978290 -22.799721 -82.741447
-5.970656 -22.604035 -82.708061
-7.963022 -22.408349 -82.674675
-9.955388 -22.212663 -82.641289
-11.947754 -22.016977 -82.607903
