ply
format ascii 1.0
element vertex 1486
property float x
property float y
property float z
end_header
141.986808 -48.653655 10.883893
141.399751 -50.414954 10.877325
140.927156 -52.225905 10.867045
139.926400 -53.807753 10.873889
139.189725 -55.504152 10.872171
137.751206 -56.896109 10.893209
136.822740 -58.509314 10.897709
135.295117 -59.272701 10.929127
134.558442 -60.969100 10.927409
133.754244 -62.636210 10.927881
132.102352 -63.345692 10.963327
131.227128 -64.691021 10.969797
129.703010 -65.746899 10.997406
128.628691 -66.706919 11.014127
127.001888 -67.621779 11.046290
125.398311 -68.595492 11.077081
123.470449 -68.747497 11.127035
122.626646 -70.397427 11.128791
122.593098 -72.398825 11.104276
121.566994 -73.969677 11.111942
121.225591 -75.837536 11.097409
120.507342 -77.541928 11.095094
119.752240 -79.230334 11.093974
119.015565 -80.926733 11.092256
118.421585 -82.685030 11.085912
117.542214 -84.319532 11.088820
117.361933 -86.257281 11.069063
115.787968 -87.000566 11.101984
115.319542 -88.813325 11.091569
114.908585 -90.424462 11.082168
113.297046 -91.377999 11.113429
113.243602 -93.370767 11.089560
111.823695 -94.770797 11.109994
110.385177 -96.162754 11.131031
109.648501 -97.859153 11.129313
108.911826 -99.555553 11.127596
108.113082 -101.225028 11.127890
106.455737 -101.932145 11.163514
105.719061 -103.628544 11.161796
104.957492 -105.261863 11.161550
103.262972 -106.005136 11.197715
103.002196 -107.907968 11.180567
101.508725 -108.686170 11.210878
100.696906 -110.192160 11.213601
99.052636 -111.062762 11.246796
98.075243 -112.149206 11.259303
96.908570 -113.574702 11.272598
95.578975 -114.423988 11.297596
94.832743 -116.096171 11.296443
93.122886 -116.800580 11.333514
92.211080 -118.053216 11.342145
90.666796 -119.177172 11.369432
89.228278 -120.569129 11.390469
87.789760 -121.961086 11.411507
86.779510 -122.964274 11.425955
85.052774 -123.625914 11.464024
83.718947 -125.063283 11.481667
82.554271 -125.895032 11.502448
80.877271 -126.682698 11.537578
79.157856 -127.362891 11.575214
77.719338 -128.754848 11.596251
76.139962 -129.789884 11.625612
74.536384 -130.763597 11.656403
72.841991 -131.507191 11.692561
71.122577 -132.187383 11.730197
69.403163 -132.867576 11.767833
67.724829 -133.651861 11.803041
66.121251 -134.625574 11.833832
64.517674 -135.599287 11.864623
62.516850 -135.566413 11.918889
60.525196 -135.556775 11.972612
58.912449 -136.507252 12.003945
57.308872 -137.480965 12.034736
55.308048 -137.448091 12.089001
53.647540 -138.277546 12.123156
51.703647 -138.388930 12.174057
49.702823 -138.356056 12.228323
48.099245 -139.329769 12.259114
46.098422 -139.296895 12.313379
44.097598 -139.264021 12.367644
42.207471 -139.511645 12.415368
40.493196 -140.204860 12.452701
38.492372 -140.171986 12.506966
36.491548 -140.139113 12.561231
34.490725 -140.106239 12.615497
32.489901 -140.073365 12.669762
30.489077 -140.040491 12.724027
28.488253 -140.007617 12.778292
26.487429 -139.974743 12.832558
24.486605 -139.941869 12.886823
22.485781 -139.908995 12.941088
-78.435973 -162.399294 44.678882
-80.017645 -161.408264 44.875998
-82.008662 -161.419095 45.089951
-83.999678 -161.429927 45.303903
-85.818234 -161.018666 45.510762
-87.572366 -160.449728 45.714971
-89.563383 -160.460560 45.928924
-91.210205 -159.628983 46.128719
-93.136071 -159.480361 46.339992
-94.717743 -158.489331 46.537108
-96.708759 -158.500163 46.751060
-98.303015 -157.539932 46.948693
-100.281447 -157.519964 47.162128
-101.863119 -156.528934 47.359244
-103.444791 -155.537904 47.556360
-105.106375 -154.742458 47.756763
-106.807215 -154.043089 47.958780
-108.508055 -153.343721 48.160797
-110.180822 -152.575646 48.361660
-111.762494 -151.584616 48.558776
-113.344166 -150.593586 48.755892
-115.021964 -149.837824 48.956961
-116.722804 -149.138455 49.158978
-118.134194 -147.730664 49.349090
-119.835033 -147.031295 49.551108
-121.246423 -145.623504 49.741220
-122.834196 -144.647406 49.938587
-124.358652 -143.516344 50.133349
-125.770042 -142.108552 50.323461
-127.181431 -140.700761 50.513573
-128.592821 -139.292969 50.703685
-130.004210 -137.885178 50.893798
-131.415600 -136.477386 51.083910
-132.826989 -135.069595 51.274022
-134.238378 -133.661803 51.464134
-135.649768 -132.254012 51.654246
-137.061157 -130.846220 51.844358
-137.770228 -129.141822 51.966952
-139.181617 -127.734030 52.157064
-140.171369 -126.148171 52.306642
-141.302077 -124.621840 52.469770
-142.167806 -122.983603 52.607425
-143.166025 -121.401319 52.757817
-144.131607 -119.805252 52.905071
-144.840677 -118.100854 53.027665
-145.549748 -116.396455 53.150259
-146.258818 -114.692057 53.272853
-147.163890 -113.070435 53.414290
-148.162109 -111.488151 53.564681
-149.088348 -109.875469 53.708153
-149.797419 -108.171070 53.830747
-150.163536 -106.321834 53.920371
-151.161754 -104.739551 54.070763
-151.166744 -102.737801 54.125670
-151.931381 -101.056870 54.253606
-152.169952 -99.153768 54.330968
-153.168171 -97.571485 54.481359
-153.173161 -95.569735 54.536266
-153.363024 -93.646063 54.608946
-154.176369 -91.985702 54.741565
-154.181359 -89.983953 54.796471
-154.186348 -87.982204 54.851378
-154.794667 -86.235256 54.964286
-155.189557 -84.398171 55.056676
-155.194546 -82.396422 55.111583
-155.199536 -80.394672 55.166490
-155.204525 -78.392923 55.221397
-155.209515 -76.391174 55.276303
-155.214505 -74.389425 55.331210
-155.219494 -72.387675 55.386117
-155.224484 -70.385926 55.441024
-154.234180 -68.792825 55.377731
-154.239170 -66.791075 55.432638
-154.244159 -64.789326 55.487544
-154.206411 -62.805124 55.537376
-153.258845 -61.194475 55.479158
-153.263835 -59.192726 55.534065
-152.808527 -57.379966 55.534307
-152.278520 -55.597875 55.525679
-151.407418 -53.955832 55.476542
-151.293206 -52.003024 55.517293
-150.710088 -50.242740 55.502357
-150.009533 -48.530674 55.473474
-149.317588 -46.815072 55.445614
-148.608424 -45.106540 55.415709
-147.907870 -43.394473 55.386827
-147.341970 -41.627119 55.373935
-146.506761 -39.970339 55.329061
-145.806207 -38.258272 55.300179
-145.366352 -36.439167 55.302257
-145.371342 -34.437418 55.357163
-145.376331 -32.435668 55.412070
-146.349084 -30.842630 55.560014
-147.058155 -29.138231 55.682608
-147.767225 -27.433833 55.805202
-148.375977 -25.687068 55.918152
-149.185366 -24.025036 56.050390
-149.379186 -22.103035 56.123450
-149.901187 -20.319633 56.228060
-150.382394 -18.519002 56.328748
-151.319328 -16.910836 56.473248
-151.385602 -14.934969 56.534047
-152.035150 -13.205432 56.650918
-152.388811 -11.350936 56.739345
-152.393800 -9.349186 56.794252
-152.757722 -7.499023 56.883665
-153.397009 -5.765153 56.999550
-153.401998 -3.763404 57.054457
-153.406988 -1.761655 57.109364
-154.189366 -0.088216 57.239005
-154.410196 1.822378 57.314662
-154.415186 3.824127 57.369569
-154.420175 5.825877 57.424475
-154.425165 7.827626 57.479382
-154.430155 9.829375 57.534289
-154.435144 11.831124 57.589196
-154.440134 13.832874 57.644102
-154.445123 15.834623 57.699009
-153.454820 17.427724 57.635716
-153.459809 19.429474 57.690623
-153.464799 21.431223 57.745530
-153.252630 23.343811 57.774647
-152.479485 25.026074 57.737144
-152.484474 27.027823 57.792050
-152.489464 29.029572 57.846957
-151.499160 30.622674 57.783664
-151.504150 32.624423 57.838571
-150.513846 34.217525 57.775278
-150.460085 36.195152 57.823208
-149.528532 37.812376 57.766892
-149.058976 39.619286 57.765443
-148.543217 41.407226 57.758506
-147.657867 43.043420 57.707678
-147.557903 45.002077 57.750120
-146.567599 46.595179 57.686828
-145.577296 48.188281 57.623535
-145.559428 50.180645 57.675727
-144.591981 51.783131 57.615149
-143.601678 53.376233 57.551856
-142.753987 55.027889 57.505500
-142.053432 56.739956 57.476617
-140.649099 58.163065 57.364155
-139.948545 59.875132 57.335272
-139.247990 61.587199 57.306390
-137.843657 63.010308 57.193928
-137.143103 64.722375 57.165045
-135.738770 66.145485 57.052583
-135.038215 67.857552 57.023700
-133.698640 69.307249 56.918929
-132.933328 70.992728 56.882355
-131.528994 72.415837 56.769893
-130.727728 74.086554 56.729050
-129.424107 75.551014 56.628548
-128.019774 76.974123 56.516086
-126.615441 78.397233 56.403624
-125.211108 79.820342 56.291162
-124.398004 81.261479 56.242809
-122.813246 82.250264 56.099135
-121.408913 83.673373 55.986673
-120.004580 85.096483 55.874211
-118.600246 86.519592 55.761749
-117.195913 87.942702 55.649286
-115.791580 89.365811 55.536824
-114.387247 90.788920 55.424362
-112.982914 92.212030 55.311900
-111.578581 93.635139 55.199438
-110.174248 95.058249 55.086975
-108.711745 96.341332 54.964450
-107.072607 97.199213 54.811369
-105.668274 98.622322 54.698907
-104.263941 100.045432 54.586445
-102.566634 100.763287 54.423301
-101.162301 102.186396 54.310839
-99.464993 102.904251 54.147695
-97.767686 103.622106 53.984551
-96.363353 105.045216 53.872089
-94.666045 105.763070 53.708946
-93.261712 107.186180 53.596483
-91.564405 107.904035 53.433340
-89.867098 108.621890 53.270196
-88.462764 110.044999 53.157734
-86.765457 110.762854 52.994590
-85.068150 111.480709 52.831446
-83.663817 112.903818 52.718984
-81.966509 113.621673 52.555840
-80.331355 114.489145 52.403448
-78.754667 115.497357 52.261170
-77.167561 116.480493 52.117090
-75.470254 117.198348 51.953947
-73.772947 117.916203 51.790803
-72.075639 118.634057 51.627659
-70.456897 119.541036 51.478107
-68.681025 120.069767 51.301372
-66.889192 120.560080 51.121876
-65.286410 121.505477 50.975084
-63.589102 122.223332 50.811941
-61.744799 122.587335 50.623368
-60.168111 123.595547 50.481090
-58.497180 124.376897 50.322509
-56.600406 124.614590 50.124860
-55.023718 125.622802 49.982582
-53.112284 125.825207 49.782397
-51.456013 126.641845 49.626352
-49.717669 127.260917 49.456109
-47.888308 127.660888 49.270122
-46.030080 127.991372 49.079140
-44.320603 128.679932 48.913891
-42.635466 129.427082 48.752853
-40.752898 129.698975 48.557661
-38.761882 129.709806 48.343709
-37.185193 130.718018 48.201431
-35.194177 130.728850 47.987479
-33.562980 131.605848 47.835771
-31.626472 131.747893 47.631248
-29.875391 132.336303 47.458802
-28.058767 132.766936 47.275018
-26.067751 132.777768 47.061066
-24.197521 133.079359 46.868008
-22.500046 133.796811 46.704835
-20.509029 133.807642 46.490883
-18.519650 133.822415 46.277214
-16.941324 134.826686 46.134653
-14.950308 134.837517 45.920701
-12.959291 134.848349 45.706748
-11.144472 135.283326 45.523276
-9.391587 135.867392 45.350518
-7.400570 135.878223 45.136566
-5.409554 135.889055 44.922613
-3.418537 135.899886 44.708661
-1.486038 136.051582 44.504831
0.149168 136.918929 44.352431
2.140184 136.929761 44.138478
4.131201 136.940592 43.924526
6.122217 136.951424 43.710574
8.113234 136.962255 43.496621
10.104250 136.973086 43.282669
12.095267 136.983918 43.068717
14.086283 136.994749 42.854764
16.077300 137.005581 42.640812
18.068316 137.016412 42.426859
20.059333 137.027244 42.212907
22.050349 137.038075 41.998955
24.041366 137.048906 41.785002
26.032382 137.059738 41.571050
28.023399 137.070569 41.357098
29.775429 136.496487 41.152975
31.596087 136.090371 40.946030
33.587104 136.101202 40.732077
35.578120 136.112033 40.518125
37.569137 136.122865 40.304172
39.437431 135.833336 40.095268
41.141825 135.142666 39.893104
43.132841 135.153498 39.679152
45.123858 135.164329 39.465200
47.109142 135.161131 39.251483
48.696546 134.184131 39.054131
50.687563 134.194962 38.840179
52.678579 134.205793 38.626227
54.260251 133.214763 38.429111
56.251267 133.225595 38.215158
58.182533 133.090189 38.003664
59.823955 132.245396 37.804090
61.814972 132.256228 37.590138
63.396644 131.265198 37.393022
65.387660 131.276029 37.179070
67.265634 131.010192 36.969767
68.960348 130.295831 36.768001
70.951365 130.306662 36.554049
72.533037 129.315632 36.356933
74.358445 128.921141 36.149792
76.105725 128.335433 35.945865
77.760124 127.522404 35.745758
79.678413 127.355235 35.534797
81.260085 126.364205 35.337681
83.251101 126.375036 35.123729
84.852935 125.433353 34.925784
86.823789 125.394838 34.712660
88.405461 124.403808 34.515545
89.987133 123.412778 34.318429
91.945745 123.344301 34.105809
93.559821 122.432579 33.907361
95.141492 121.441549 33.710245
97.048265 121.246196 33.499757
98.714181 120.461351 33.299177
100.295852 119.470321 33.102061
101.877524 118.479291 32.904945
103.562174 117.740299 32.703593
105.263014 117.040930 32.501576
107.031884 116.508062 32.296761
108.664694 115.642193 32.097542
110.365534 114.942825 31.895524
112.066374 114.243456 31.693507
113.767214 113.544088 31.491490
115.349587 112.554774 31.294345
116.879443 111.436928 31.099360
118.512930 110.572714 30.900113
120.094602 109.581684 30.702997
121.692513 108.630399 30.505214
123.103902 107.222608 30.315102
124.804742 106.523239 30.113084
126.216132 105.115447 29.922972
127.916972 104.416079 29.720955
129.584632 103.635504 29.520302
131.029201 102.308919 29.328826
132.730041 101.609550 29.126808
134.141430 100.201759 28.936696
135.552820 98.793967 28.746584
137.083646 97.678493 28.551560
138.665049 96.686807 28.354455
140.076439 95.279016 28.164343
141.487828 93.871224 27.974231
142.899218 92.463433 27.784118
144.310607 91.055641 27.594006
145.721996 89.647850 27.403894
147.133386 88.240058 27.213782
148.544775 86.832267 27.023670
149.956165 85.424475 26.833558
151.367554 84.016684 26.643446
152.844655 82.769718 26.450631
153.777465 81.612917 26.318835
155.188854 80.205125 26.128723
156.600243 78.797334 25.938610
158.011633 77.389542 25.748498
159.423022 75.981751 25.558386
160.132093 74.277353 25.435792
161.543482 72.869561 25.245680
162.590253 71.307782 25.090621
163.663942 69.757371 24.932974
164.586690 68.143214 24.789838
165.784402 66.645181 24.620268
166.583128 64.978647 24.489055
167.904861 63.532991 24.307562
168.613932 61.828593 24.184967
169.577784 60.231796 24.037880
170.734392 58.716403 23.872261
171.574222 57.067228 23.737097
172.572441 55.484944 23.586705
173.563922 53.899815 23.436961
174.272992 52.195417 23.314367
174.573868 50.318627 23.231015
175.572087 48.736344 23.080623
176.400203 47.082221 22.946585
176.575295 45.152311 22.875325
177.573514 43.570027 22.724933
177.825095 41.672419 22.646320
178.576722 39.985994 22.519635
179.243236 38.263623 22.401132
179.579930 36.401961 22.314337
180.578149 34.819677 22.163945
180.583139 32.817928 22.109038
181.377198 31.149422 21.978274
181.586347 29.233895 21.903740
181.591337 27.232146 21.848833
182.099771 25.443013 21.745528
182.594545 23.648113 21.643535
182.599535 21.646363 21.588628
182.604524 19.644614 21.533722
183.531414 18.032206 21.390187
183.607733 16.060581 21.328423
183.612722 14.058832 21.273516
183.617712 12.057083 21.218610
183.622701 10.055333 21.163703
183.627691 8.053584 21.108796
183.632681 6.051835 21.053890
183.637670 4.050086 20.998983
183.642660 2.048336 20.944076
182.652356 0.455235 21.007369
182.657345 -1.546515 20.952462
182.662335 -3.548264 20.897555
182.305354 -5.401395 20.885636
181.677021 -7.143115 20.905941
181.682010 -9.144864 20.851035
181.611248 -11.115511 20.805124
180.696696 -12.739715 20.859421
180.701686 -14.741464 20.804514
179.711382 -16.334566 20.867807
179.512809 -18.252736 20.837075
178.726068 -19.929416 20.876193
178.731057 -21.931166 20.821286
177.740754 -23.524267 20.884579
177.414370 -25.389961 20.869025
176.713816 -27.102028 20.897908
175.765136 -28.712220 20.956257
174.774832 -30.305321 21.019550
174.612152 -32.238229 20.984556
173.789518 -33.900172 21.027936
172.799214 -35.493274 21.091229
171.806711 -37.085472 21.154783
170.818606 -38.679477 21.217814
169.828303 -40.272579 21.281107
169.001269 -41.932716 21.325010
168.300714 -43.644783 21.353893
166.896381 -45.067892 21.466355
166.195827 -46.779959 21.495238
164.876784 -48.238087 21.597571
164.090939 -49.915135 21.636583
162.896176 -51.424290 21.724157
161.986052 -53.050312 21.777927
160.581718 -54.473421 21.890390
159.177385 -55.896531 22.002852
158.476831 -57.608597 22.031734
157.072498 -59.031707 22.144197
155.668165 -60.454816 22.256659
154.263832 -61.877926 22.369121
152.859499 -63.301035 22.481583
151.455165 -64.724145 22.594046
150.050832 -66.147254 22.706508
148.646499 -67.570363 22.818970
147.242166 -68.993473 22.931432
145.837833 -70.416582 23.043894
144.433500 -71.839692 23.156357
143.029167 -73.262801 23.268819
141.624834 -74.685911 23.381281
140.220501 -76.109020 23.493743
138.816167 -77.532129 23.606206
137.121761 -78.256968 23.768847
135.714527 -79.673094 23.881812
134.310194 -81.096203 23.994274
132.806024 -82.278984 24.124007
131.208553 -83.237168 24.269880
129.652648 -84.295408 24.408562
128.075959 -85.303620 24.550840
126.409606 -86.095987 24.708629
124.922583 -87.320043 24.835396
123.307965 -88.236951 24.984235
121.903632 -89.660061 25.096698
120.206325 -90.377916 25.259841
118.615829 -91.352891 25.404508
117.104684 -92.518880 25.535447
115.462453 -93.369315 25.689064
113.885764 -94.377527 25.831341
112.305736 -95.377699 25.974197
110.608429 -96.095554 26.137341
108.911122 -96.813409 26.300484
107.164683 -97.412994 26.472127
105.516507 -98.249119 26.626772
103.819199 -98.966974 26.789916
102.121892 -99.684829 26.953059
100.443601 -100.448461 27.112913
98.866913 -101.456673 27.255191
97.290224 -102.464884 27.397469
95.332663 -102.556249 27.605634
93.722520 -103.483928 27.753699
92.145831 -104.492140 27.895977
90.240740 -104.709813 28.095065
88.578126 -105.511183 28.252208
87.001438 -106.519395 28.394486
85.148818 -106.863378 28.584497
83.433733 -107.538438 28.750716
81.461229 -107.593833 28.961466
79.866028 -108.557481 29.106946
78.066615 -109.029543 29.287753
76.298324 -109.576525 29.463176
74.672000 -110.465253 29.614041
72.730619 -110.595568 29.819406
71.153930 -111.603780 29.961684
69.162914 -111.614611 30.175637
67.586226 -112.622823 30.317915
65.595209 -112.633655 30.531867
63.609233 -112.656619 30.744947
62.027504 -113.652698 30.888097
60.036488 -113.663529 31.102050
58.459799 -114.671741 31.244327
56.468783 -114.682573 31.458280
54.536748 -114.835385 31.662029
52.901078 -115.701616 31.814510
50.910061 -115.712447 32.028462
48.919045 -115.723279 32.242415
47.342357 -116.731491 32.384693
45.351340 -116.742322 32.598645
43.360324 -116.753153 32.812597
41.369307 -116.763985 33.026550
39.786392 -117.757206 33.169905
37.801602 -117.783028 33.382780
35.810586 -117.793860 33.596732
33.819569 -117.804691 33.810685
31.828553 -117.815522 34.024637
30.127958 -118.525463 34.188349
28.260848 -118.834566 34.380867
26.269831 -118.845397 34.594820
24.278815 -118.856228 34.808772
22.287798 -118.867060 35.022724
20.296782 -118.877891 35.236677
18.305765 -118.888723 35.450629
16.314749 -118.899554 35.664581
14.323732 -118.910386 35.878534
12.332716 -118.921217 36.092486
10.341699 -118.932048 36.306438
8.350683 -118.942880 36.520391
6.359666 -118.953711 36.734343
4.368650 -118.964543 36.948295
2.556989 -119.407124 37.131221
1.856435 -121.119191 37.160104
1.007228 -122.770224 37.206640
-0.248453 -124.254367 37.301448
-0.973380 -125.956427 37.333226
-2.353340 -127.389543 37.442793
-3.757674 -128.812653 37.555256
-4.458228 -130.524720 37.584138
-5.862561 -131.947829 37.696600
-7.266894 -133.370938 37.809063
-8.671227 -134.794048 37.921525
-10.075560 -136.217157 38.033987
-10.886397 -137.883945 38.075967
-12.473422 -138.647079 38.226013
-13.877755 -140.070189 38.338476
-15.282088 -141.493298 38.450938
-16.686421 -142.916407 38.563400
-18.199319 -144.078177 38.694643
-19.788062 -145.057372 38.839006
-21.192395 -146.480481 38.951468
-22.889702 -147.198336 39.114612
-24.294036 -148.621446 39.227074
-25.991343 -149.339301 39.390218
-27.395676 -150.762410 39.502680
-29.236138 -151.135661 39.690588
-30.812826 -152.143873 39.832866
-32.487598 -152.915975 39.992111
-33.966203 -154.160296 40.117422
-35.882213 -154.351685 40.318399
-37.533907 -155.179340 40.473652
-39.110596 -156.187552 40.615930
-40.974135 -156.505249 40.807830
-42.671442 -157.223104 40.970974
-44.254989 -158.214807 41.114438
-46.246006 -158.225638 41.328390
-47.822694 -159.233850 41.470668
-49.753646 -159.389270 41.674230
-51.390399 -160.252893 41.826898
-53.381415 -160.263725 42.040851
-55.138542 -160.837580 42.214343
-56.949120 -161.282768 42.397081
-58.940137 -161.293599 42.611033
-60.931153 -161.304431 42.824986
-62.513720 -162.298491 42.968281
-64.498858 -162.323474 43.181216
-66.489874 -162.334306 43.395168
-68.480891 -162.345137 43.609121
-70.471907 -162.355968 43.823073
-72.462924 -162.366800 44.037025
-74.453940 -162.377631 44.250978
-76.444957 -162.388463 44.464930
5.015471 -20.201031 40.894240
3.423003 -19.212370 41.130920
1.419410 -19.224976 41.364096
-0.173058 -18.236316 41.600776
-2.176652 -18.248922 41.833953
-3.814722 -17.371321 42.070244
-5.522618 -16.663778 42.305940
-6.237542 -14.951307 42.477424
-7.945439 -14.243764 42.713120
-9.362626 -12.828219 42.951293
-10.779814 -11.412673 43.189467
-11.494737 -9.700202 43.360951
-11.874018 -7.845817 43.500562
-12.867781 -6.251242 43.698526
-12.868394 -4.236751 43.802177
-12.869006 -2.222261 43.905829
-12.869618 -0.207770 44.009480
-12.870231 1.806720 44.113132
-12.870843 3.821211 44.216783
-12.871455 5.835702 44.320434
-12.028453 7.504207 44.307844
-11.314573 9.225668 44.313046
-10.886488 11.064340 44.357627
-9.893698 12.671414 44.324397
-9.172934 14.390052 44.328650
-8.459054 16.111513 44.333852
-7.042732 17.544887 44.242264
-6.328852 19.266349 44.247465
-4.929748 20.706784 44.158250
-3.907512 21.716842 44.090887
-2.491191 23.150216 43.999299
-1.777311 24.871677 44.004500
-0.113378 25.706014 43.853215
1.346471 27.034084 43.751132
2.762792 28.467458 43.659544
4.470252 29.196490 43.497764
5.886574 30.629864 43.406176
7.434195 31.745589 43.282933
9.437788 31.758195 43.049756
11.008954 32.816961 42.920836
12.621511 33.775589 42.781937
14.423874 34.275025 42.597276
16.216965 34.796892 42.414851
17.838794 35.733089 42.273716
19.812420 35.818196 42.047765
21.816013 35.830802 41.814588
23.819606 35.843409 41.581412
25.823200 35.856016 41.348235
27.826793 35.868622 41.115059
29.830386 35.881229 40.881883
31.833980 35.893835 40.648706
33.536889 35.174147 40.412968
35.430041 34.917781 40.178850
37.243392 34.467065 39.944053
38.951289 33.759522 39.708357
40.368476 32.343976 39.470183
41.799914 30.963137 39.232132
43.493560 30.220888 38.996314
44.731737 28.729654 38.775140
45.625671 27.092871 38.586656
45.726113 25.120589 38.473525
47.055519 23.667928 38.243688
47.713639 21.931440 38.077597
47.714251 19.916949 37.973946
47.714864 17.902459 37.870294
47.715476 15.887968 37.766643
47.716088 13.873478 37.662992
47.716701 11.858987 37.559340
47.717313 9.844496 37.455689
47.576752 7.887904 37.371489
46.725135 6.222932 37.385267
45.732346 4.615858 37.418496
44.739556 3.008784 37.451726
44.018791 1.290146 37.447473
43.304911 -0.431315 37.442271
41.888590 -1.864689 37.533859
40.931382 -2.997474 37.587323
39.775428 -4.441573 37.647974
38.753370 -6.036644 37.685236
37.337048 -7.470018 37.776824
36.551097 -9.017120 37.788999
34.915708 -9.920512 37.933403
33.499387 -11.353886 38.024991
31.791927 -12.082918 38.186771
30.375606 -13.516292 38.278359
28.959284 -14.949666 38.369947
26.999930 -15.069300 38.592457
25.253225 -15.703388 38.763699
23.816208 -17.086694 38.860277
21.838305 -17.161452 39.087259
20.220754 -18.107997 39.227363
18.423385 -18.619517 39.410819
16.625299 -19.129301 39.594449
15.008465 -20.077581 39.734379
13.029845 -20.150604 39.961535
11.026251 -20.163211 40.194711
9.022658 -20.175818 40.427888
7.019065 -20.188424 40.661064
14.944481 -30.198291 86.206608
13.333615 -29.247373 86.441811
11.337340 -29.307829 86.689410
9.510910 -28.922586 86.931547
7.730199 -28.417368 87.172212
5.733924 -28.477824 87.419812
4.077339 -27.646881 87.656485
2.356990 -26.983263 87.895209
0.515917 -26.636445 88.137817
-1.094949 -25.685527 88.373019
-2.804056 -24.992409 88.611382
-4.524404 -24.328790 88.850106
-6.244753 -23.665172 89.088830
-7.923822 -22.893229 89.326227
-9.412925 -21.622786 89.557513
-10.860748 -20.244017 89.787472
-12.371010 -19.029099 90.019439
-14.028920 -18.201631 90.256154
-15.476743 -16.822863 90.486113
-16.924566 -15.444095 90.716071
-17.678436 -13.751504 90.870328
-19.126259 -12.372736 91.100287
-19.880129 -10.680145 91.254544
-20.633999 -8.987555 91.408801
-21.387869 -7.294964 91.563058
-22.409946 -5.723663 91.746573
-22.461202 -3.713334 91.824184
-23.493856 -2.146816 92.008853
-23.545112 -0.136487 92.086464
-23.596368 1.873842 92.164075
-23.647624 3.884172 92.241686
-23.504526 5.820107 92.292348
-22.747639 7.521100 92.257902
-22.798895 9.531430 92.335513
-21.847654 11.158029 92.274118
-21.547546 13.033865 92.303009
-20.172210 14.498132 92.182810
-19.505747 16.233737 92.160902
-18.839284 17.969342 92.138994
-17.463947 19.433609 92.018794
-16.088611 20.897876 91.898594
-14.713275 22.362142 91.778394
-13.029395 23.128857 91.594890
-11.654059 24.593124 91.474690
-10.278723 26.057390 91.354490
-8.702864 27.068318 91.193148
-7.142936 28.115263 91.035075
-5.535626 29.055086 90.867281
-3.851746 29.821800 90.683776
-2.167865 30.588515 90.500271
-0.466878 31.316553 90.313257
1.199895 32.121943 90.133262
2.883776 32.888658 89.949758
4.649253 33.470900 89.749512
6.645528 33.531356 89.501912
8.243961 34.491248 89.335939
10.201730 34.638758 89.096240
12.198006 34.699214 88.848640
13.757933 35.746159 88.690568
15.754208 35.806616 88.442968
17.750483 35.867072 88.195369
19.746759 35.927529 87.947769
21.743034 35.987986 87.700170
23.739309 36.048442 87.452571
25.735584 36.108899 87.204971
27.572217 35.750430 86.962507
29.342725 35.218437 86.722169
31.339000 35.278894 86.474570
33.278314 35.189876 86.228803
34.946141 34.388433 85.991768
36.719011 33.862639 85.751354
38.553282 33.497971 85.508966
40.432234 33.250553 85.265140
42.160423 32.607510 85.026164
43.872931 31.923316 84.787691
45.593280 31.259698 84.548967
47.041103 29.880930 84.319009
48.761452 29.217312 84.080285
50.481800 28.553694 83.841560
51.929623 27.174925 83.611602
53.649972 26.511307 83.372878
54.403842 24.818717 83.218620
56.077147 24.031649 82.981409
57.572014 22.776330 82.749938
59.019837 21.397562 82.519979
60.323343 19.953530 82.305764
61.221530 18.326203 82.135764
61.975400 16.633613 81.981507
63.421306 15.253977 81.751757
63.483140 13.248431 81.672992
64.505216 11.677130 81.489477
64.556472 9.666801 81.411866
65.589127 8.100284 81.227197
65.640383 6.089954 81.149586
65.691639 4.079625 81.071975
65.742895 2.069296 80.994364
65.599797 0.133360 80.943702
64.842910 -1.567633 80.978148
64.894166 -3.577962 80.900537
63.942924 -5.204562 80.961932
62.991683 -6.831161 81.023327
62.267481 -8.544665 81.053241
61.601017 -10.280270 81.075149
60.225681 -11.744537 81.195349
59.559218 -13.480141 81.217257
58.183882 -14.944408 81.337456
56.601498 -15.940583 81.500137
55.315576 -17.248465 81.614689
54.458202 -18.910994 81.663069
52.774322 -19.677709 81.846573
51.379204 -21.097253 81.970832
49.715106 -21.908690 82.150278
48.031225 -22.675404 82.333783
46.655889 -24.139671 82.453982
44.972009 -24.906385 82.637487
43.143218 -25.345489 82.850723
41.583290 -26.392433 83.008796
39.587015 -26.452890 83.256396
37.927943 -27.275690 83.434810
36.030813 -27.560292 83.662068
34.470885 -28.607236 83.820141
32.474610 -28.667693 84.067740
30.478335 -28.728150 84.315340
28.891453 -29.714157 84.478943
26.922132 -29.835551 84.721012
24.925857 -29.896008 84.968611
22.929582 -29.956464 85.216211
20.933307 -30.016921 85.463810
18.937032 -30.077378 85.711410
16.940757 -30.137834 85.959009
-73.436106 -147.030920 115.551262
-75.044805 -146.102998 115.811530
-77.029875 -146.189569 116.044958
-78.858550 -145.854586 116.289540
-80.623643 -145.348218 116.538655
-82.562224 -145.309482 116.775399
-84.217411 -144.506867 117.032351
-85.999764 -144.047022 117.280236
-87.718533 -143.415792 117.532654
-89.419878 -142.737593 117.786316
-91.028576 -141.809671 118.046583
-92.637274 -140.881749 118.306851
-94.593612 -140.890873 118.542329
-96.046247 -139.542288 118.813726
-97.765016 -138.911059 119.066144
-99.217651 -137.562474 119.337541
-100.670286 -136.213889 119.608938
-102.289465 -135.314215 119.868458
-103.841691 -134.234074 120.132753
-105.294326 -132.885489 120.404150
-106.746961 -131.536904 120.675547
-108.199595 -130.188319 120.946943
-108.960761 -128.517247 121.157853
-110.413396 -127.168662 121.429250
-111.866030 -125.820077 121.700646
-112.980798 -124.313919 121.942488
-114.079831 -122.800421 122.182953
-115.075102 -121.238531 122.414341
-115.602161 -119.458278 122.604771
-116.363326 -117.787206 122.815681
-117.238671 -116.169386 123.036578
-118.285823 -114.631692 123.272504
-119.332975 -113.093999 123.508431
-119.407988 -111.102920 123.659318
-120.449393 -109.562547 123.894742
-120.518659 -107.568788 124.045126
-121.565811 -106.031095 124.281053
-121.635077 -104.037336 124.431437
-121.830875 -102.102590 124.592890
-122.751494 -100.505884 124.817748
-122.820761 -98.512126 124.968132
-122.890027 -96.518368 125.118517
-122.959293 -94.524609 125.268901
-123.028559 -92.530851 125.419285
-123.097825 -90.537092 125.569670
-123.167091 -88.543334 125.720054
-122.685642 -86.751749 125.789566
-122.299056 -84.925338 125.873009
-122.368322 -82.931579 126.023393
-121.468612 -81.293541 126.031484
-121.500286 -79.313583 126.176348
-120.894508 -77.567640 126.227602
-120.632251 -75.695587 126.329303
-119.694949 -74.071349 126.331873
-118.965727 -72.370723 126.365000
-118.322800 -70.638417 126.410799
-117.889612 -68.829115 126.487398
-117.958878 -66.835356 126.637782
-118.924235 -65.259515 126.866554
-119.685400 -63.588444 127.077463
-121.138035 -62.239859 127.348860
-122.147485 -60.684582 127.581488
-123.351835 -59.220202 127.831166
-124.241789 -57.609195 128.053341
-125.565636 -56.200546 128.313472
-126.336092 -54.533808 128.525194
-127.383244 -52.996114 128.761121
-128.430395 -51.458421 128.997047
-129.301766 -49.838747 129.217597
-130.524699 -48.383033 129.468900
-130.824097 -46.496604 129.639416
-131.641117 -44.851581 129.855211
-132.688269 -43.313888 130.091137
-133.735420 -41.776194 130.327064
-133.868758 -39.812318 130.483053
-134.851838 -38.244742 130.713375
-135.391089 -36.470175 130.904872
-135.968256 -34.713290 131.099686
-136.221950 -32.805545 131.266203
-137.084674 -31.181838 131.485996
-137.744280 -29.463402 131.688022
-138.201092 -27.650386 131.872307
-138.270358 -25.656628 132.022692
-139.317509 -24.118934 132.258618
-139.386776 -22.125176 132.409002
-139.456042 -20.131418 132.559387
-139.545394 -18.147027 132.711528
-140.572459 -16.599966 132.945698
-140.641726 -14.606207 133.096082
-140.710992 -12.612449 133.246466
-140.780258 -10.618690 133.396851
-140.849524 -8.624932 133.547235
-140.918790 -6.631174 133.697620
-140.988056 -4.637415 133.848004
-141.057322 -2.643657 133.998388
-140.684999 -0.812010 134.083925
-140.189287 0.974339 134.151343
-140.258553 2.968098 134.301727
-140.327819 4.961856 134.452112
-139.536793 6.639793 134.476162
-139.459783 8.579852 134.605066
-139.529049 10.573611 134.755451
-138.591748 12.197849 134.758021
-138.388586 14.091596 134.868400
-137.723712 15.815845 134.910976
-137.792979 17.809603 135.061360
-136.855677 19.433841 135.063930
-136.528629 21.282109 135.156116
-135.885702 23.014415 135.201915
-135.050340 24.676076 135.219456
-134.599848 26.479026 135.293514
-133.956921 28.211332 135.339313
-133.245003 29.918310 135.374981
-132.671067 31.675943 135.430911
-131.370400 33.166786 135.380121
-130.673463 34.879264 135.417989
-130.030536 36.611569 135.463788
-129.387609 38.343875 135.509587
-128.627761 40.033258 135.538217
-127.390004 41.547195 135.496665
-126.035326 43.018211 135.437944
-125.392399 44.750516 135.483743
-124.749472 46.482822 135.529542
-123.394794 47.953837 135.470821
-122.751867 49.686143 135.516620
-121.397189 51.157158 135.457899
-120.122781 52.657640 135.410965
-119.399585 54.360478 135.444977
-118.044907 55.831494 135.386256
-116.690229 57.302509 135.327535
-115.335551 58.773524 135.268814
-113.980873 60.244539 135.210092
-112.626196 61.715554 135.151371
-111.271518 63.186569 135.092650
-109.916840 64.657585 135.033929
-108.562162 66.128600 134.975208
-107.207484 67.599615 134.916487
-105.852807 69.070630 134.857765
-104.342843 70.200613 134.756008
-102.828353 71.320653 134.652996
-101.473675 72.791669 134.594275
-100.118997 74.262684 134.535554
-98.630644 75.440126 134.439786
-97.091190 76.505343 134.329856
-95.424767 77.291715 134.184737
-94.070090 78.762730 134.126016
-92.472829 79.700994 134.000065
-91.045636 81.012754 133.921247
-89.393921 81.831428 133.780205
-87.854468 82.896645 133.670275
-86.351406 84.041785 133.570431
-84.775560 85.027078 133.450415
-83.236106 86.092295 133.340484
-81.657177 87.070817 133.219614
-79.987401 87.849825 133.073566
-78.317625 88.628833 132.927518
-76.647849 89.407841 132.781470
-75.093221 90.439734 132.667335
-73.553767 91.504951 132.557405
-71.953619 92.436873 132.430654
-70.283843 93.215881 132.284606
-68.614067 93.994889 132.138558
-66.950336 94.787173 131.994186
-65.410882 95.852389 131.884256
-63.604739 96.331913 131.700415
-61.934964 97.110922 131.554367
-60.346905 98.069394 131.430967
-58.595412 98.668938 131.262272
-56.925636 99.447946 131.116224
-55.282927 100.286399 130.977678
-53.586084 101.005962 130.824128
-51.758404 101.438187 130.634319
-50.218950 102.503404 130.524389
-48.261658 102.650980 130.298658
-46.694426 103.655192 130.181030
-44.709357 103.741764 129.947601
-43.169903 104.806980 129.837671
-41.184833 104.893552 129.604242
-39.597680 105.854014 129.481093
-37.660309 106.045340 129.260884
-35.943030 106.720023 129.101671
-34.135786 107.197128 128.917525
-32.288380 107.586032 128.722249
-30.611262 108.348916 128.574166
-28.626192 108.435487 128.340737
-26.963954 109.231050 128.196779
-25.101669 109.587275 127.997378
-23.116599 109.673846 127.763950
-21.324430 110.184060 127.583982
-19.592075 110.825634 127.420591
-17.607005 110.912206 127.187162
-15.621935 110.998777 126.953734
-14.015130 111.916079 126.825138
-12.097412 112.150565 126.610375
-10.112342 112.237136 126.376946
-8.127272 112.323707 126.143518
-6.142202 112.410279 125.910089
-4.405858 113.043092 125.745593
-2.617679 113.562067 125.566730
-0.632609 113.648638 125.333302
1.352461 113.735209 125.099873
3.337531 113.821780 124.866444
5.322601 113.908351 124.633016
7.307671 113.994923 124.399587
9.292740 114.081494 124.166158
11.277810 114.168065 123.932730
13.262880 114.254636 123.699301
15.247950 114.341207 123.465873
17.233020 114.427779 123.232444
19.218090 114.514350 122.999015
21.203159 114.600921 122.765587
23.188229 114.687492 122.532158
24.804844 113.780909 122.272455
26.781997 113.846141 122.038462
28.767067 113.932712 121.805033
30.752137 114.019284 121.571604
32.737207 114.105855 121.338176
34.463232 113.494182 121.086274
36.330975 113.264504 120.844479
38.316045 113.351075 120.611050
40.301115 113.437646 120.377622
41.909813 112.509724 120.117354
43.894883 112.596295 119.883925
45.879953 112.682866 119.650497
47.559159 111.944994 119.395257
49.473721 111.841515 119.156800
51.458791 111.928086 118.923372
53.067489 111.000164 118.663104
55.052559 111.086735 118.429675
56.685277 110.223556 118.171120
58.646327 110.245384 117.935979
60.388951 109.678452 117.685261
62.240096 109.404033 117.442282
64.092625 109.133347 117.199402
65.833864 108.562682 116.948586
67.792135 108.708107 116.722584
69.358387 109.714470 116.605227
70.816589 110.958130 116.517815
72.437295 111.844904 116.385367
73.976749 112.910121 116.275436
75.516203 113.975337 116.165506
77.501272 114.061909 115.932078
79.480567 114.161164 115.700250
81.025796 115.213697 115.588719
83.010866 115.300268 115.355290
84.995936 115.386839 115.121862
86.981006 115.473410 114.888433
88.966075 115.559981 114.655004
90.789377 115.210512 114.410040
92.559844 114.718630 114.161308
94.544913 114.805202 113.927879
96.211821 114.034178 113.671762
98.138682 113.963850 113.434183
99.747380 113.035928 113.173915
101.634264 112.857844 112.933485
103.341148 112.194577 112.680218
104.949847 111.266655 112.419951
106.558545 110.338732 112.159683
108.243208 109.615570 111.904832
109.961978 108.984340 111.652413
111.414613 107.635755 111.381017
113.133382 107.004526 111.128598
114.586017 105.655941 110.857201
116.038652 104.307356 110.585805
117.491287 102.958771 110.314408
118.643455 102.063290 110.111554
119.971222 100.656469 109.851080
121.423857 99.307884 109.579683
122.876492 97.959299 109.308286
123.809947 96.368580 109.082306
124.857099 94.830887 108.846379
125.851457 93.268571 108.615071
126.612623 91.597500 108.404161
127.373788 89.926428 108.193252
128.067820 88.224047 107.988215
128.896118 86.584285 107.771433
129.184238 84.692595 107.601904
130.231390 83.154902 107.365978
130.300656 81.161144 107.215594
130.369922 79.167385 107.065209
130.627536 77.261468 106.898349
132.080171 75.912883 106.626952
133.532806 74.564298 106.355555
134.985441 73.215713 106.084158
136.438076 71.867128 105.812762
137.890711 70.518543 105.541365
139.343345 69.169958 105.269968
140.795980 67.821373 104.998571
142.248615 66.472788 104.727175
143.701250 65.124203 104.455778
144.462415 63.453132 104.244868
145.915050 62.104547 103.973472
146.916551 60.545563 103.741539
148.128850 59.084890 103.491166
149.010855 57.470176 103.269686
150.058007 55.932482 103.033759
151.103816 54.394162 102.797950
152.556451 53.045577 102.526553
153.317616 51.374506 102.315644
154.246614 49.781708 102.090053
155.293765 48.244014 101.854127
156.292582 46.683778 101.622428
157.053747 45.012706 101.411519
158.435221 43.630933 101.146347
158.576077 41.670563 100.989700
159.551638 40.099481 100.760036
160.598790 38.561788 100.524110
160.859573 36.657349 100.356972
161.715208 35.030336 100.137799
162.762360 33.492642 99.901873
163.143069 31.644134 99.724244
163.878778 29.961190 99.515562
163.973930 27.979505 99.362913
164.995195 26.429738 99.129251
165.496261 24.637362 98.941094
166.111613 22.898286 98.742940
166.180879 20.904528 98.592556
167.088287 19.301661 98.368853
167.297297 17.373076 98.206245
167.366563 15.379318 98.055860
167.435829 13.385559 97.905476
168.482981 11.847866 97.669550
168.552247 9.854107 97.519165
168.621513 7.860349 97.368781
168.690779 5.866590 97.218397
168.760045 3.872832 97.068012
168.829312 1.879074 96.917628
168.898578 -0.114685 96.767243
168.967844 -2.108443 96.616859
168.758712 -3.999999 96.507357
168.099808 -5.726439 96.463904
168.169074 -7.720198 96.313520
168.238340 -9.713956 96.163136
167.610505 -11.451802 96.115120
167.370305 -13.331952 96.010181
167.439571 -15.325711 95.859797
166.502269 -16.949949 95.857226
166.462299 -18.903605 95.722883
165.634234 -20.567945 95.704272
165.703500 -22.561703 95.553887
164.766199 -24.185941 95.551317
164.602342 -26.094118 95.435166
163.898163 -27.803938 95.398362
163.316488 -29.558729 95.343568
162.673561 -31.291035 95.297769
162.030634 -33.023341 95.251970
161.155524 -34.670410 95.240267
160.744780 -36.487952 95.160372
159.390102 -37.958967 95.219093
158.747175 -39.691272 95.173294
158.104248 -41.423578 95.127495
157.461321 -43.155884 95.081695
156.106644 -44.626899 95.140417
155.463717 -46.359204 95.094617
154.109039 -47.830220 95.153339
153.466112 -49.562525 95.107540
152.111434 -51.033540 95.166261
150.845207 -52.537027 95.211993
150.113829 -54.236861 95.179183
149.470902 -55.969167 95.133384
148.116225 -57.440182 95.192105
146.761547 -58.911197 95.250826
145.406869 -60.382212 95.309547
144.214830 -61.912934 95.344385
143.409264 -63.585533 95.322469
142.054586 -65.056548 95.381190
140.699908 -66.527563 95.439912
139.345231 -67.998578 95.498633
137.990553 -69.469594 95.557354
136.635875 -70.940609 95.616075
135.122094 -72.062207 95.718890
133.611421 -73.190632 95.820844
132.256743 -74.661647 95.879565
130.902066 -76.132662 95.938286
129.547388 -77.603678 95.997007
127.877612 -78.382686 96.143055
126.522934 -79.853701 96.201776
125.168256 -81.324716 96.260498
123.498480 -82.103724 96.406545
122.143803 -83.574739 96.465267
120.618788 -84.671667 96.571195
119.119349 -85.824763 96.670035
117.539880 -86.802101 96.791055
116.000427 -87.867318 96.900985
114.425119 -88.853794 97.020852
112.921519 -89.997752 97.120846
111.382065 -91.062969 97.230776
109.730889 -91.882826 97.371669
108.061114 -92.661834 97.517717
106.391338 -93.440842 97.663764
105.036660 -94.911857 97.722486
103.366884 -95.690865 97.868533
101.699726 -96.475624 98.013855
100.027332 -97.248882 98.160629
98.357556 -98.027890 98.306677
96.687780 -98.806898 98.452725
95.096295 -99.757846 98.577075
93.556841 -100.823063 98.687005
91.993550 -101.835929 98.803541
90.032318 -101.974851 99.030364
88.492864 -103.040068 99.140294
86.669125 -103.480947 99.329011
84.999349 -104.259955 99.475059
83.428887 -105.257073 99.593583
81.659797 -105.817971 99.767154
79.904363 -106.408861 99.936942
78.005147 -106.683981 100.146577
76.379839 -107.560649 100.280300
74.665595 -108.241997 100.438672
72.855316 -108.712437 100.623659
71.315862 -109.777654 100.733589
69.330792 -109.864225 100.967018
67.671393 -110.666023 101.110190
65.806268 -111.016013 101.310377
64.016743 -111.532032 101.489612
62.281745 -112.167801 101.653736
60.362093 -112.398041 101.869034
58.757221 -113.319589 101.997094
56.772151 -113.406160 102.230523
55.037667 -114.043059 102.394504
53.247628 -114.557949 102.573882
51.262558 -114.644520 102.807310
49.398143 -114.996069 103.007301
47.738034 -115.796308 103.150669
45.752964 -115.882879 103.384098
43.767894 -115.969450 103.617527
42.088843 -116.728088 103.766145
40.243371 -117.121238 103.960885
38.258301 -117.207809 104.194314
36.273231 -117.294381 104.427743
34.288161 -117.380952 104.661171
32.479571 -117.855101 104.845690
30.763638 -118.532740 105.004530
28.778568 -118.619311 105.237959
26.793498 -118.705882 105.471387
24.808428 -118.792454 105.704816
22.823358 -118.879025 105.938245
20.838289 -118.965596 106.171673
18.853219 -119.052167 106.405102
16.868149 -119.138738 106.638531
14.883079 -119.225310 106.871959
12.898009 -119.311881 107.105388
10.912939 -119.398452 107.338816
8.927870 -119.485023 107.572245
6.942800 -119.571594 107.805674
4.957730 -119.658166 108.039102
3.280095 -118.916059 108.294454
1.363962 -118.816814 108.532799
-0.621108 -118.903386 108.766227
-2.606178 -118.989957 108.999656
-4.591248 -119.076528 109.233085
-6.378293 -118.629331 109.480635
-8.185016 -118.235177 109.726781
-10.170086 -118.321748 109.960210
-12.155156 -118.408319 110.193638
-13.785641 -117.539123 110.452353
-15.748924 -117.566968 110.687335
-17.733994 -117.653539 110.920764
-19.719064 -117.740111 111.154192
-21.098949 -119.155765 111.219900
-21.741876 -120.888071 111.174100
-23.096554 -122.359086 111.232822
-24.451232 -123.830101 111.291543
-25.494287 -125.415516 111.304502
-26.448837 -127.033422 111.304465
-27.803515 -128.504437 111.363186
-29.158192 -129.975452 111.421907
-30.629218 -131.190949 111.512873
-32.182646 -132.225476 111.626676
-32.825573 -133.957781 111.580877
-34.495349 -134.736789 111.726925
-35.850027 -136.207804 111.785646
-37.519803 -136.986813 111.931694
-38.874481 -138.457828 111.990415
-40.824162 -138.622119 112.214036
-42.363615 -139.687336 112.323966
-43.903069 -140.752552 112.433896
-45.553584 -141.573860 112.574606
-47.223360 -142.352869 112.720654
-48.967047 -142.969557 112.887185
-50.878010 -143.218878 113.100076
-52.491570 -144.121345 113.230544
-54.217562 -144.776894 113.392171
-56.016094 -145.273134 113.573903
-58.001164 -145.359705 113.807331
-59.541988 -146.421912 113.917641
-61.525687 -146.511493 114.150690
-63.510757 -146.598064 114.384119
-65.495827 -146.684635 114.617547
-67.480897 -146.771206 114.850976
-69.465967 -146.857778 115.084405
-71.451036 -146.944349 115.317833
-75.757156 -179.536650 126.908987
-77.367331 -178.625609 127.225244
-79.343782 -178.733023 127.528793
-81.320234 -178.840438 127.832343
-83.142370 -178.518768 128.141246
-84.906860 -178.036810 128.452149
-86.883312 -178.144225 128.755698
-88.551782 -177.395278 129.069932
-90.469938 -177.340597 129.375504
-92.080113 -176.429556 129.691761
-94.056565 -176.536970 129.995310
-95.678000 -175.657238 130.311176
-97.643191 -175.733343 130.615117
-99.253367 -174.822301 130.931373
-100.863542 -173.911259 131.247630
-102.545222 -173.199041 131.561406
-104.262027 -172.584491 131.873964
-105.978833 -171.969942 132.186521
-107.670519 -171.285548 132.499950
-109.280695 -170.374506 132.816207
-110.890870 -169.463464 133.132463
-112.587058 -168.791587 133.445736
-114.303864 -168.177038 133.758294
-115.761673 -166.842331 134.079836
-117.478479 -166.227782 134.392394
-118.936288 -164.893075 134.713937
-120.551922 -163.997213 135.030004
-122.110903 -162.943819 135.348037
-123.568712 -161.609113 135.669580
-125.026521 -160.274406 135.991123
-126.484330 -158.939699 136.312666
-127.942140 -157.604993 136.634209
-129.399949 -156.270286 136.955752
-130.857758 -154.935579 137.277295
-132.315567 -153.600873 137.598838
-133.773377 -152.266166 137.920380
-135.231186 -150.931459 138.241923
-136.003551 -149.267032 138.478392
-137.461361 -147.932325 138.799935
-138.507663 -146.399671 139.070403
-139.691535 -144.933191 139.357947
-140.616796 -143.342311 139.613392
-141.671362 -141.813632 139.884886
-142.694076 -140.269630 140.152427
-143.466441 -138.605203 140.388895
-144.238807 -136.940776 140.625364
-145.011172 -135.276348 140.861833
-145.974829 -133.703939 141.122044
-147.029396 -132.175259 141.393538
-148.013712 -130.612787 141.656313
-148.786078 -128.948360 141.892782
-149.223731 -127.122925 142.087707
-150.278297 -125.594246 142.359201
-150.363499 -123.599271 142.510382
-151.190096 -121.960931 142.753582
-151.503268 -120.075616 142.933057
-152.557834 -118.546937 143.204552
-152.643037 -116.551962 143.355733
-152.908670 -114.643781 143.529308
-153.782805 -113.028308 143.778408
-153.868008 -111.033333 143.929589
-153.953210 -109.038358 144.080770
-154.627245 -107.326631 144.305034
-155.092979 -105.514704 144.503445
-155.178181 -103.519729 144.654626
-155.263383 -101.524754 144.805807
-155.348586 -99.529779 144.956988
-155.433788 -97.534804 145.108169
-155.518991 -95.539830 145.259350
-155.604193 -93.544855 145.410531
-155.689395 -91.549880 145.561712
-154.769986 -89.913920 145.530037
-154.855188 -87.918946 145.681218
-154.940391 -85.923971 145.832399
-154.982455 -83.944412 145.975728
-154.106184 -82.293036 145.951905
-154.191386 -80.298062 146.103086
-153.811982 -78.469122 146.169701
-153.357179 -76.667127 146.222592
-152.558087 -74.988170 146.212817
-152.522972 -73.036193 146.342098
-152.014561 -71.253356 146.385231
-151.387613 -69.512880 146.406789
-150.769356 -67.769299 146.429929
-150.133719 -66.031929 146.449905
-149.506772 -64.291453 146.471463
-149.015740 -62.502405 146.517760
-148.252877 -60.810501 146.514579
-147.625930 -59.070025 146.536137
-147.262124 -57.235511 146.605591
-147.347326 -55.240536 146.756772
-147.432529 -53.245562 146.907953
-148.462241 -51.704927 147.176362
-149.234606 -50.040499 147.412831
-150.006972 -48.376072 147.649300
-150.681430 -46.664548 147.873616
-151.551703 -45.047218 148.122237
-151.821198 -43.140894 148.296292
-152.410990 -41.388643 148.510100
-152.960967 -39.617239 148.718967
-153.955721 -38.059788 148.983037
-154.100736 -36.093585 149.141642
-154.815008 -34.401213 149.370900
-155.240504 -32.569931 149.564317
-155.325707 -30.574956 149.715498
-155.761217 -28.748490 149.910158
-156.465475 -27.051301 150.138173
-156.550678 -25.056326 150.289354
-156.635880 -23.061352 150.440535
-157.479792 -21.431340 150.685884
-157.775649 -19.537697 150.863210
-157.860851 -17.542722 151.014391
-157.946053 -15.547748 151.165572
-158.031256 -13.552773 151.316753
-158.116458 -11.557798 151.467934
-158.201661 -9.562823 151.619115
-158.286863 -7.567848 151.770296
-158.372065 -5.572874 151.921477
-157.452656 -3.936914 151.889802
-157.537858 -1.941939 152.040983
-157.623061 0.053036 152.192164
-157.489072 1.969679 152.303449
-156.788854 3.683970 152.311670
-156.874056 5.678945 152.462851
-156.959259 7.673920 152.614032
-156.039849 9.309879 152.582357
-156.125052 11.304854 152.733538
-155.205642 12.940813 152.701863
-155.231545 14.914596 152.842251
-154.371436 16.571748 152.821369
-153.977650 18.395548 152.885367
-153.537229 20.202682 152.940875
-152.723756 21.876500 152.928483
