ply
format ascii 1.0
element vertex 1199
property float x
property float y
property float z
end_header
-18.598147 -67.667095 24.431536
-20.179321 -66.658313 24.543353
-22.182218 -66.646116 24.631891
-24.006057 -66.210781 24.730312
-25.766290 -65.625137 24.832245
-27.710731 -65.474802 24.924010
-29.350361 -64.604158 25.032600
-30.931535 -63.595377 25.144417
-32.820438 -63.313797 25.239247
-34.515606 -62.574398 25.344771
-35.928705 -61.168435 25.465866
-37.631940 -60.448100 25.570945
-39.036972 -59.023073 25.692486
-40.740207 -58.302738 25.797565
-41.488724 -56.610623 25.901458
-42.995721 -55.528689 26.013085
-44.468461 -54.412972 26.124623
-45.241089 -52.730666 26.229164
-46.944325 -52.010331 26.334243
-47.640632 -50.296975 26.436733
-48.418720 -48.616890 26.541422
-49.405124 -47.021554 26.651709
-50.457950 -45.491722 26.762168
-51.432790 -44.436574 26.849283
-52.368978 -42.820808 26.958221
-53.355383 -41.225472 27.068508
-54.230437 -39.584836 27.175803
-54.325905 -37.627042 27.262143
-55.753800 -36.467100 27.373566
-56.303354 -35.021632 27.458366
-57.289759 -33.426296 27.568654
-58.010178 -31.722750 27.671792
-58.260280 -29.827866 27.762288
-58.694069 -28.007710 27.857722
-59.230802 -26.229436 27.955922
-59.214919 -24.226341 28.039269
-59.199036 -22.223247 28.122615
-59.183154 -20.220152 28.205962
-60.049434 -18.575946 28.313021
-60.153675 -16.621722 28.399596
-59.142068 -15.038554 28.421562
-59.431620 -13.159719 28.513119
-60.112590 -11.440123 28.615197
-60.096707 -9.437029 28.698543
-60.080824 -7.433934 28.781890
-60.064941 -5.430840 28.865236
-60.020047 -3.439980 28.946794
-59.037451 -1.844577 28.970549
-59.021568 0.158518 29.053896
-59.005685 2.161612 29.137242
-58.534575 3.972724 29.192527
-57.978195 5.747875 29.242555
-57.962313 7.750969 29.325902
-57.772513 9.680718 29.398527
-56.934822 11.337232 29.431214
-56.325693 13.090137 29.477991
-55.907332 14.923495 29.536527
-55.582957 16.796489 29.600857
-54.879842 18.509758 29.641840
-54.136138 20.205909 29.680321
-53.852352 22.096021 29.747153
-52.840745 23.679189 29.769119
-51.965908 25.320037 29.799517
-51.813255 27.265452 29.874432
-51.223172 29.026389 29.922383
-49.795679 30.434166 29.918712
-49.072269 32.138876 29.958444
-47.766825 33.598125 29.962297
-47.750942 35.601219 30.045644
-46.902040 37.253005 30.077640
-45.727728 38.767556 30.089576
-44.751137 40.365491 30.113701
-43.704513 41.933892 30.133509
-42.692906 43.517061 30.155475
-41.876824 45.182687 30.189494
-40.669691 46.683397 30.199408
-39.725921 48.295174 30.225556
-38.646477 49.849734 30.243340
-37.288017 50.699405 30.219287
-35.860524 52.107182 30.215617
-35.137114 53.811892 30.255348
-33.709621 55.219669 30.251678
-32.738837 56.313913 30.254924
-31.271717 57.623900 30.245409
-30.535885 59.297954 30.283309
-28.833814 60.028131 30.239141
-27.564484 61.502610 30.245220
-26.395910 62.432363 30.232872
-24.968417 63.840140 30.229202
-23.540923 65.247917 30.225531
-22.113430 66.655694 30.221861
-20.685937 68.063470 30.218190
-19.156706 69.220181 30.199514
-17.543950 70.170769 30.168519
-15.829456 70.870291 30.122519
-14.491042 72.315635 30.124339
-13.391553 73.274522 30.116250
-11.756821 74.170878 30.082014
-10.159803 75.160305 30.053340
-8.535072 76.081342 30.020579
-6.820578 76.780864 29.974578
-5.368749 78.128586 29.967318
-3.678591 78.888163 29.924907
-1.964098 79.587685 29.878907
-0.249604 80.287206 29.832906
1.425202 81.084669 29.792760
3.022220 82.074095 29.764086
5.025118 82.061898 29.675548
6.622135 83.051325 29.646874
8.322864 83.784815 29.602904
10.222051 84.028554 29.529663
12.038852 84.475603 29.468573
13.821966 85.005784 29.412452
15.754840 85.166391 29.334242
17.421882 85.983013 29.295241
19.424780 85.970816 29.206703
21.427677 85.958619 29.118166
23.430575 85.946421 29.029628
25.433472 85.934224 28.941091
27.436370 85.922027 28.852553
29.439268 85.909829 28.764016
31.442165 85.897632 28.675479
33.023339 84.888851 28.563662
35.026237 84.876653 28.475124
37.029134 84.864456 28.386587
38.890610 84.518061 28.290243
40.613206 83.843477 28.186232
42.616103 83.831280 28.097695
44.596724 83.766438 28.007928
46.001755 82.341412 27.886387
47.781349 81.801520 27.785523
49.706430 81.605433 27.692690
51.111461 80.180406 27.571150
52.814697 79.460071 27.466071
54.219729 78.035045 27.344531
55.922964 77.314710 27.239451
57.626199 76.594374 27.134372
58.460699 74.937239 27.028168
59.727539 73.455992 26.910342
61.426709 72.726051 26.805038
62.426840 71.144252 26.694715
63.582128 69.715467 26.583993
65.235348 68.876940 26.476153
65.931656 67.163585 26.373663
66.627963 65.450229 26.271173
68.032995 64.025203 26.149633
68.729303 62.311847 26.047143
69.425610 60.598492 25.944653
70.322717 58.966827 25.836766
71.309121 57.371491 25.726478
72.223257 55.746754 25.618133
73.281930 54.180820 25.505902
73.266048 52.177725 25.422556
73.603455 50.318359 25.329713
75.243497 49.572315 25.226332
75.294274 47.596340 25.141194
76.214019 45.973885 25.032698
76.198136 43.970790 24.949352
76.182253 41.967696 24.866005
76.166371 39.964601 24.782659
76.649639 38.164575 24.685895
77.136892 36.366171 24.589024
77.121009 34.363076 24.505678
77.105127 32.359982 24.422331
77.089244 30.356887 24.338985
77.073361 28.353793 24.255638
77.057478 26.350698 24.172292
77.041595 24.347604 24.088945
77.025712 22.344509 24.005599
77.009830 20.341415 23.922252
76.993947 18.338320 23.838905
76.735945 16.437335 23.770484
75.966457 14.752058 23.733593
75.289125 13.027915 23.691020
74.938967 11.165795 23.628280
74.923084 9.162700 23.544933
74.907201 7.159606 23.461587
73.895594 5.576437 23.439620
73.080243 3.910502 23.405556
72.868103 1.990175 23.334308
71.856496 0.407006 23.312341
71.840613 -1.596088 23.228995
70.890688 -3.205269 23.203226
69.817399 -4.762425 23.185062
69.801516 -6.765519 23.101716
68.789909 -8.348687 23.079749
68.701132 -10.321040 23.000896
67.762418 -11.934950 22.974437
66.750811 -13.518118 22.952470
65.826819 -15.138237 22.925103
64.727597 -16.684455 22.908538
64.711714 -18.687549 22.825191
63.656590 -20.252365 22.805907
62.688499 -21.853886 22.781259
61.505686 -23.364852 22.769846
60.665284 -25.020222 22.737326
59.354783 -26.477338 22.733785
58.631374 -28.182048 22.694053
57.630462 -29.769727 22.671427
56.480470 -31.294535 22.657991
54.827044 -32.144757 22.694985
53.604557 -33.514044 22.691261
52.615074 -35.106543 22.667931
51.891664 -36.811253 22.628199
50.421140 -38.112840 22.638216
48.749677 -38.918551 22.677870
48.026267 -40.623261 22.638138
47.206375 -42.089872 22.612636
45.588364 -43.027492 22.644406
44.160870 -44.435269 22.648077
42.733377 -45.843046 22.651747
41.224183 -47.049203 22.667468
39.591390 -47.950345 22.701418
38.867980 -49.655054 22.661686
37.153486 -50.354576 22.707687
35.438993 -51.054098 22.753687
34.470752 -52.655555 22.729048
33.218364 -53.994516 22.727910
31.573596 -54.866106 22.763626
29.859102 -55.565628 22.809627
29.012514 -56.966360 22.788063
27.415496 -57.955786 22.816737
25.706705 -58.669381 22.861896
23.992211 -59.368902 22.907896
22.218563 -59.922443 22.962622
20.563224 -60.767946 22.999897
18.848730 -61.467468 23.045898
17.021630 -61.889099 23.108507
15.419743 -62.866511 23.137899
13.992250 -64.274288 23.141569
12.230576 -64.857379 23.194528
10.276262 -64.965076 23.275900
8.630660 -65.834609 23.311740
7.033643 -66.824036 23.340413
5.030745 -66.811838 23.428951
3.418287 -67.763163 23.459902
1.430829 -67.789068 23.546162
-0.572068 -67.776871 23.634700
-2.574966 -67.764673 23.723237
-4.577863 -67.752476 23.811774
-6.580761 -67.740279 23.900312
-8.583659 -67.728081 23.988849
-10.586556 -67.715884 24.077387
-12.589454 -67.703687 24.165924
-14.592352 -67.691489 24.254461
-16.595249 -67.679292 24.342999
15.597315 -19.621777 37.176270
14.004882 -18.636992 37.335728
12.178002 -18.232787 37.502269
10.414754 -17.671008 37.666888
8.758690 -16.843797 37.828268
6.824626 -16.705024 37.998047
5.232192 -15.720239 38.157505
3.629720 -14.760313 38.317266
1.642064 -14.754255 38.488664
0.210408 -13.371323 38.643265
-1.499249 -12.676828 38.806264
-2.922342 -11.272690 38.960606
-4.345435 -9.868552 39.114947
-6.055092 -9.174057 39.277947
-7.406893 -7.739523 39.426832
-8.198971 -6.066345 39.532883
-9.908628 -5.371850 39.695882
-10.629414 -3.668276 39.796476
-12.052507 -2.264138 39.950818
-12.773293 -0.560564 40.051412
-14.196386 0.843574 40.205754
-14.917172 2.547149 40.306348
-16.340266 3.951286 40.460690
-16.475232 5.904632 40.516451
-17.079531 7.657871 40.608131
-17.498170 9.490269 40.685602
-18.506246 11.071354 40.808182
-18.521109 13.075906 40.854753
-18.535973 15.080458 40.901323
-18.550836 17.085011 40.947893
-18.565699 19.089563 40.994463
-18.580562 21.094115 41.041034
-17.852000 22.797598 41.016746
-17.610935 24.698505 41.038924
-17.167801 26.517580 41.041841
-15.765727 27.948307 40.953360
-14.657465 29.498020 40.892882
-13.666234 31.091208 40.843471
-11.969110 31.822513 40.713765
-10.511018 33.120448 40.617457
-8.867917 33.979817 40.495299
-7.168797 34.706394 40.365314
-5.358106 35.168490 40.219741
-3.770558 36.159547 40.105345
-1.782803 36.201912 39.935032
0.214891 36.220713 39.763330
2.212586 36.239514 39.591628
4.210281 36.258316 39.419927
6.207976 36.277117 39.248225
8.205670 36.295918 39.076523
10.203365 36.314720 38.904822
12.198847 36.328041 38.733187
13.793493 35.348736 38.573662
15.618160 34.939051 38.407188
17.383621 34.382752 38.242503
19.037472 33.550061 38.081189
20.568488 32.413181 37.923587
22.456785 32.161071 37.755191
24.158616 31.447197 37.592428
25.589535 30.062439 37.437850
27.012628 28.658301 37.283508
28.722285 27.963806 37.120509
30.145378 26.559668 36.966167
31.208082 25.001874 36.839406
32.319084 23.525819 36.710330
33.998914 22.757461 36.548232
35.221179 21.267698 36.409259
36.142793 19.649749 36.293296
36.863579 17.946174 36.192702
38.241064 17.110054 36.055123
39.249139 15.528969 35.932543
40.014808 13.844531 35.828514
40.735594 12.140957 35.727919
41.456380 10.437382 35.627325
42.288230 8.781161 35.518231
42.303093 6.776609 35.471661
42.317956 4.772057 35.425091
42.332819 2.767505 35.378520
42.347682 0.762953 35.331950
43.355758 -0.818132 35.209370
43.046598 -2.691463 35.193683
42.386131 -4.422523 35.211480
42.362399 -6.411445 35.168588
41.416504 -8.026913 35.213590
40.971551 -9.845251 35.210846
39.569477 -11.275978 35.299327
38.463034 -12.826428 35.359631
37.469220 -14.417066 35.409323
35.772860 -15.150185 35.538922
34.314003 -16.446307 35.635337
32.671667 -17.307488 35.757388
30.972547 -18.034065 35.887373
29.161092 -18.494349 36.033053
27.163397 -18.513150 36.204755
25.165702 -18.531951 36.376456
23.581977 -19.532071 36.490318
21.590399 -19.565373 36.661165
19.592705 -19.584174 36.832867
17.595010 -19.602976 37.004569
108.214043 76.192817 63.104605
106.579477 77.158607 63.251895
104.552529 77.115965 63.425147
102.717066 77.565442 63.585730
100.891016 78.039113 63.745690
99.237384 78.955904 63.894242
97.497543 79.651136 64.048498
95.987316 80.936483 64.187560
94.295317 81.754668 64.338650
92.718183 82.868064 64.482140
91.093090 83.858200 64.628803
89.630705 85.266501 64.764701
88.866775 86.982441 64.843116
88.030107 88.666343 64.927518
86.640460 90.106682 65.057429
85.972219 91.864769 65.127970
85.931041 93.899049 65.146905
85.047126 95.562141 65.235195
84.860920 97.532543 65.266065
85.431978 99.327205 65.230757
86.125819 101.073813 65.184570
86.819660 102.820421 65.138383
88.223811 104.289027 65.029264
89.627962 105.757633 64.920144
91.338187 106.525446 64.779506
93.227577 106.883043 64.620419
95.064714 107.360278 64.466712
96.848616 107.959399 64.318487
98.875564 108.002042 64.145234
100.816421 107.823429 63.977677
102.537078 107.078894 63.824691
104.564025 107.121536 63.651438
106.198591 106.155746 63.504148
108.053239 105.755572 63.342296
109.515625 104.347271 63.206399
111.494672 104.266808 63.036315
112.296851 102.649169 62.955369
114.036692 101.953938 62.801113
115.499077 100.545637 62.665216
117.238918 99.850406 62.510960
118.701304 98.442105 62.375063
119.465233 96.726165 62.296647
120.783636 95.254446 62.172599
120.993093 93.294285 62.139816
121.853758 91.620953 62.053439
122.520952 89.862405 61.982984
122.923880 87.987460 61.934278
122.965058 85.953179 61.915343
122.001705 84.312053 61.985409
121.185539 82.613321 62.042433
120.491698 80.866713 62.088620
119.087547 79.398107 62.197740
117.483070 78.388171 62.327488
115.888978 77.354457 62.456167
113.862030 77.311815 62.629420
112.246644 76.326856 62.760291
110.240991 76.235459 62.931352
15.482256 -19.774742 70.318711
13.877213 -18.808331 70.463478
11.879788 -18.850352 70.634207
10.049178 -18.463654 70.793899
8.277320 -17.925962 70.949703
6.612097 -17.114215 71.098452
4.674852 -17.001572 71.265199
3.069809 -16.035161 71.409966
1.456474 -15.090058 71.555281
-0.262067 -14.415338 71.707557
-1.745322 -13.135927 71.844265
-3.421693 -12.352830 71.993751
-4.862779 -10.965042 72.127669
-6.303865 -9.577253 72.261587
-7.674049 -8.158236 72.389670
-8.487580 -6.494037 72.471941
-9.718882 -5.604710 72.584119
-10.747226 -4.035127 72.684069
-11.691381 -2.428462 72.777090
-11.816149 -0.460893 72.802678
-12.478185 1.270033 72.872482
-12.885071 3.113341 72.921287
-12.925649 5.117992 72.939946
-12.966227 7.122642 72.958605
-12.654393 8.989366 72.946041
-12.042853 10.738790 72.906923
-11.307615 12.439801 72.856846
-10.634227 14.165018 72.812248
-9.960838 15.890236 72.767650
-8.577138 17.337451 72.660120
-7.764192 18.743135 72.601152
-6.213975 19.809091 72.476474
-4.830276 21.256306 72.368944
-3.446577 22.703522 72.261414
-1.756803 23.449944 72.122366
-0.373104 24.897160 72.014835
1.316670 25.643582 71.875787
3.006444 26.390004 71.736738
4.752364 27.007875 71.591908
6.385992 27.882849 71.458641
8.314358 28.082989 71.295023
9.878927 29.116081 71.168868
11.876352 29.158103 70.998138
13.757238 29.466951 70.839409
15.438346 30.233216 70.701253
17.435770 30.275237 70.530524
19.433195 30.317259 70.359794
21.430619 30.359280 70.189065
23.428044 30.401301 70.018336
25.425469 30.443322 69.847606
27.144724 29.770438 69.695282
29.027937 29.518932 69.532110
31.025361 29.560953 69.361381
32.630405 28.594542 69.216614
34.573798 28.497700 69.049460
36.232873 27.670152 68.901118
38.010880 27.148262 68.744907
39.729420 26.473542 68.592631
41.440384 25.779350 68.440856
42.889047 24.411034 68.306437
44.607588 23.736315 68.154160
46.048674 22.348526 68.020242
47.489759 20.960738 67.886324
49.073221 19.938861 67.742986
49.950930 18.590591 67.657612
51.392016 17.202802 67.523694
52.134645 15.507374 67.447258
52.877275 13.811947 67.370821
53.702297 12.152809 67.287604
54.362535 10.421091 67.217948
54.771219 8.578575 67.168995
54.811797 6.573924 67.150336
54.852376 4.569273 67.131677
54.542370 2.701835 67.144080
53.929002 0.953126 67.183359
53.905902 -1.026602 67.170342
53.005628 -2.663021 67.235041
52.041675 -4.274518 67.305382
50.869350 -5.223460 67.398586
50.101916 -6.911870 67.451516
48.812262 -8.395893 67.550713
47.428563 -9.843108 67.658243
46.044864 -11.290324 67.765773
44.411063 -12.164904 67.899058
42.971391 -13.483962 68.012352
41.281925 -14.231089 68.151369
39.717355 -15.264182 68.277524
38.152786 -16.297274 68.403680
36.212294 -16.469651 68.568547
34.590792 -17.372388 68.700565
32.832746 -17.962495 68.846644
31.028798 -18.447502 68.997450
29.031373 -18.489523 69.168179
27.457349 -19.500968 69.295308
25.469379 -19.564636 69.465064
23.471955 -19.606658 69.635793
21.474530 -19.648679 69.806523
19.477106 -19.690700 69.977252
17.479681 -19.732721 70.147982
-70.039130 -173.961316 96.739059
-71.649946 -173.028399 96.979091
-73.642323 -173.106907 97.164323
-75.634700 -173.185415 97.349556
-77.466322 -172.837801 97.557876
-79.237893 -172.331005 97.774820
-81.230270 -172.409513 97.960052
-82.901814 -171.637572 98.191363
-84.833463 -171.555104 98.385317
-86.444280 -170.622186 98.625349
-88.436656 -170.700694 98.810581
-90.059203 -169.798870 99.048929
-92.039850 -169.846285 99.235846
-93.650666 -168.913367 99.475879
-95.261483 -167.980450 99.715911
-96.946787 -167.244983 99.945246
-98.668683 -166.606512 100.169325
-100.390580 -165.968040 100.393404
-102.086309 -165.260206 100.621241
-103.697125 -164.327288 100.861273
-105.307942 -163.394371 101.101306
-107.008360 -162.698967 101.328470
-108.730256 -162.060495 101.552549
-110.182349 -160.706838 101.815378
-111.904245 -160.068366 102.039457
-113.356337 -158.714708 102.302286
-114.972840 -157.796866 102.541501
-116.530325 -156.722579 102.789193
-117.982418 -155.368922 103.052022
-119.434510 -154.015264 103.314851
-120.886602 -152.661606 103.577680
-122.338694 -151.307949 103.840509
-123.790787 -149.954291 104.103338
-125.242879 -148.600634 104.366166
-126.694971 -147.246976 104.628995
-128.147063 -145.893319 104.891824
-129.599156 -144.539661 105.154653
-130.356669 -142.866798 105.379347
-131.808761 -141.513141 105.642176
-132.843862 -139.967848 105.882111
-134.018366 -138.486620 106.129699
-134.930812 -136.884959 106.362900
-135.974287 -135.343515 106.603294
-136.985485 -133.787237 106.841917
-137.742998 -132.114374 107.066611
-138.500511 -130.441511 107.291305
-139.258024 -128.768648 107.516000
-140.209379 -127.184868 107.751336
-141.252853 -125.643424 107.991731
-142.225143 -124.069265 108.228217
-142.982656 -122.396402 108.452911
-143.400995 -120.567666 108.658984
-144.444470 -119.026222 108.899378
-144.505662 -117.033353 109.085842
-145.318129 -115.385745 109.313554
-145.610329 -113.499040 109.512701
-146.653804 -111.957595 109.753095
-146.714995 -109.964726 109.939559
-146.959023 -108.055883 110.136062
-147.819662 -106.430413 110.366418
-147.880854 -104.437544 110.552882
-147.942046 -102.444675 110.739346
-148.599918 -100.726021 110.958570
-149.046712 -98.910362 111.166205
-149.107904 -96.917493 111.352669
-149.169096 -94.924624 111.539133
-149.230288 -92.931755 111.725597
-149.291479 -90.938887 111.912061
-149.352671 -88.946018 112.098525
-149.413863 -86.953149 112.284989
-149.475055 -84.960280 112.471453
-148.528648 -83.340426 112.526847
-148.589840 -81.347557 112.713311
-148.651032 -79.354688 112.899775
-148.668958 -77.377836 113.080611
-147.765818 -75.741965 113.141634
-147.827009 -73.749096 113.328098
-147.422213 -71.928737 113.453946
-146.941795 -70.136373 113.569956
-146.116064 -68.471845 113.641048
-146.056580 -66.523650 113.811815
-145.522393 -64.751192 113.920831
-144.869319 -63.022746 114.014383
-144.224960 -61.291073 114.109068
-143.563169 -59.565854 114.201485
-142.910095 -57.837408 114.295037
-142.393339 -56.058496 114.406321
-141.603945 -54.380516 114.482140
-140.950870 -52.652070 114.575691
-140.561719 -50.825919 114.703574
-140.622911 -48.833050 114.890038
-140.684102 -46.840182 115.076502
-141.702392 -45.287163 115.315514
-142.459905 -43.614300 115.540208
-143.217418 -41.941437 115.764902
-143.875719 -40.222980 115.984149
-144.732445 -38.595711 116.214291
-144.980386 -36.688666 116.411008
-145.552892 -34.930780 116.625545
-146.085052 -33.154353 116.837866
-147.067918 -31.585055 117.074933
-147.189719 -29.620040 117.264725
-147.888365 -27.920123 117.486187
-148.294386 -26.085726 117.691583
-148.355578 -24.092858 117.878047
-148.771746 -22.263124 118.084001
-149.460244 -20.558544 118.304906
-149.521436 -18.565675 118.491370
-149.582628 -16.572807 118.677834
-150.412640 -14.933262 118.906509
-150.687295 -13.038493 119.104693
-150.748486 -11.045624 119.291157
-150.809678 -9.052755 119.477621
-150.870870 -7.059887 119.664085
-150.932062 -5.067018 119.850549
-150.993253 -3.074149 120.037013
-151.054445 -1.081280 120.223477
-151.115637 0.911589 120.409941
-150.169231 2.531443 120.465335
-150.230422 4.524312 120.651800
-150.291614 6.517181 120.838264
-150.132963 8.428663 120.996130
-149.406400 10.129904 121.080122
-149.467592 12.122773 121.266586
-149.528783 14.115642 121.453050
-148.582377 15.735496 121.508445
-148.643569 17.728364 121.694909
-147.697163 19.348219 121.750303
-147.698878 21.319069 121.929030
-146.811948 22.960941 121.992162
-146.392729 24.775961 122.116133
-145.926734 26.573664 122.234020
-145.086579 28.232853 122.303236
-145.041520 30.186387 122.475879
-144.095113 31.806241 122.531273
-143.148707 33.426095 122.586667
-143.186760 35.410398 122.770121
-142.263493 37.038818 122.828526
-141.317087 38.658672 122.883920
-140.515056 40.331975 122.958095
-139.861982 42.060421 123.051647
-138.496428 43.525105 123.052518
-137.843353 45.253551 123.146069
-137.190278 46.981997 123.239621
-135.824724 48.446682 123.240492
-135.171649 50.175128 123.334043
-133.806095 51.639812 123.334914
-133.153021 53.368258 123.428466
-131.853025 54.857213 123.437865
-131.134392 56.561389 123.522888
-129.768838 58.026074 123.523759
-129.013807 59.716775 123.604048
-127.750209 61.219204 123.618182
-126.384655 62.683889 123.619053
-125.019101 64.148574 123.619924
-123.653547 65.613258 123.620795
-122.880223 67.075781 123.678645
-121.321900 68.114169 123.622283
-119.956345 69.578853 123.623154
-118.590791 71.043538 123.624025
-117.225237 72.508223 123.624896
-115.859683 73.972907 123.625767
-114.494129 75.437592 123.626638
-113.128575 76.902277 123.627509
-111.763021 78.366961 123.628381
-110.397467 79.831646 123.629252
-109.031913 81.296330 123.630123
-107.604210 82.623577 123.612542
-105.987786 83.533480 123.538930
-104.622232 84.998164 123.539801
-103.256678 86.462849 123.540672
-101.578106 87.235313 123.448609
-100.212551 88.699998 123.449480
-98.533979 89.472463 123.357416
-96.855406 90.244927 123.265352
-95.489852 91.709612 123.266223
-93.811279 92.482076 123.174159
-92.445725 93.946761 123.175030
-90.767152 94.719225 123.082966
-89.088579 95.491690 122.990902
-87.723025 96.956374 122.991774
-86.044452 97.728839 122.899710
-84.365880 98.501303 122.807646
-83.000326 99.965988 122.808517
-81.321753 100.738453 122.716453
-79.709586 101.657769 122.644105
-78.159884 102.715224 122.590303
-76.599053 103.748066 122.533196
-74.920480 104.520531 122.441132
-73.241907 105.292995 122.349069
-71.563335 106.065460 122.257005
-69.968702 107.023553 122.189863
-68.206189 107.610389 122.072877
-66.426624 108.159516 121.950828
-64.849043 109.155318 121.888749
-63.170470 109.927782 121.796685
-61.334845 110.352934 121.657992
-59.785143 111.410389 121.604190
-58.134752 112.245176 121.520493
-56.243065 112.546352 121.365156
-54.693364 113.603808 121.311354
-52.786015 113.870349 121.151367
-51.151286 114.739771 121.072320
-49.428869 115.415278 120.967239
-47.609207 115.875734 120.833286
-45.758705 116.267987 120.690176
-44.067129 117.011697 120.594252
-42.401559 117.812916 120.506048
-40.525051 118.147660 120.355218
-38.532674 118.226168 120.169985
-36.982973 119.283623 120.116183
-34.990596 119.362131 119.930951
-33.382657 120.290798 119.859859
-31.448518 120.498094 119.691917
-29.712493 121.143507 119.582796
-27.906440 121.634058 119.452883
-25.914063 121.712566 119.267651
-24.050737 122.076460 119.120734
-22.371985 122.848529 119.028617
-20.379608 122.927037 118.843385
-18.388981 123.009413 118.658672
-16.837530 124.063000 118.604351
-14.845153 124.141508 118.419119
-12.852777 124.220016 118.233887
-11.048652 124.714830 118.104546
-9.310698 125.355979 117.994852
-7.318322 125.434487 117.809620
-5.325945 125.512995 117.624388
-3.333568 125.591503 117.439156
-1.403712 125.808272 117.272487
0.208510 126.727466 117.200122
2.200887 126.805974 117.014890
4.193264 126.884482 116.829658
6.185640 126.962990 116.644426
8.178017 127.041498 116.459194
10.170394 127.120006 116.273962
12.162771 127.198514 116.088730
14.155148 127.277022 115.903498
16.147524 127.355530 115.718266
18.139901 127.434038 115.533033
20.132278 127.512546 115.347801
22.124655 127.591054 115.162569
24.117031 127.669562 114.977337
26.109408 127.748070 114.792105
28.101785 127.826578 114.606873
29.871397 127.314589 114.389647
31.704978 126.972169 114.181609
33.697355 127.050677 113.996376
35.689732 127.129185 113.811144
37.682109 127.207693 113.625912
39.560093 126.982973 113.424251
41.285302 126.353283 113.200648
43.277679 126.431791 113.015416
45.270055 126.510299 112.830184
47.257089 126.574644 112.644184
48.873249 125.655890 112.404919
50.865625 125.734398 112.219687
52.858002 125.812906 112.034455
54.468819 124.879988 111.794422
56.461196 124.958496 111.609190
58.397878 124.889371 111.415959
60.064389 124.104087 111.183926
62.056766 124.182595 110.998694
63.667582 123.249677 110.758661
65.659959 123.328185 110.573429
67.546966 123.127384 110.373063
69.263152 122.473776 110.148164
71.255529 122.552284 109.962932
72.866345 121.619366 109.722900
74.704354 121.288682 109.515497
76.469539 120.764957 109.297635
78.148147 120.011739 109.067339
80.072732 119.910547 108.872370
81.683548 118.977630 108.632338
83.675925 119.056138 108.447106
85.305535 118.173038 108.209772
87.279118 118.201728 108.021841
88.889935 117.268811 107.781809
90.500751 116.335893 107.541776
92.462923 116.334337 107.352206
94.103944 115.481484 107.116511
95.714761 114.548567 106.876479
97.628612 114.418921 106.679969
99.317954 113.694157 106.451214
100.928771 112.761240 106.211182
102.539587 111.828322 105.971149
104.246392 111.149849 105.744903
105.968289 110.511377 105.520824
107.753597 110.040995 105.305852
109.412081 109.234433 105.072666
111.133977 108.595962 104.848587
112.855873 107.957490 104.624508
114.577769 107.319018 104.400428
116.189239 106.387833 104.160490
117.751758 105.326889 103.913521
119.410872 104.521998 103.680425
121.021689 103.589081 103.440392
122.647642 102.696288 103.202534
124.099734 101.342630 102.939705
125.821631 100.704158 102.715626
127.273723 99.350501 102.452797
128.995619 98.712029 102.228718
130.686588 97.991576 102.000197
132.169607 96.719900 101.741810
133.891503 96.081428 101.517731
135.343596 94.727770 101.254902
136.795688 93.374113 100.992073
138.359110 92.315563 100.745234
139.969676 91.381984 100.505165
141.421768 90.028326 100.242336
142.873861 88.674668 99.979508
144.325953 87.321011 99.716679
145.778045 85.967353 99.453850
147.230137 84.613696 99.191021
148.682230 83.260038 98.928192
150.134322 81.906381 98.665363
151.586414 80.552723 98.402534
153.038506 79.199065 98.139706
154.551849 78.007769 97.885674
155.517916 76.887731 97.690932
156.970008 75.534073 97.428103
158.422100 74.180416 97.165275
159.874192 72.826758 96.902446
161.326285 71.473101 96.639617
162.083798 69.800238 96.414923
163.535890 68.446580 96.152094
164.627382 66.927203 95.909063
165.745495 65.420060 95.664571
166.714332 63.844314 95.428274
167.955101 62.393539 95.177048
168.801282 60.761425 94.947485
170.164706 59.367019 94.689524
170.922219 57.694156 94.464830
171.931707 56.137092 94.226302
173.131825 54.667635 93.977307
174.018656 53.054203 93.745513
175.062131 51.512759 93.505118
176.098943 49.968252 93.265090
176.856456 48.295389 93.040395
177.210273 46.437001 92.837865
178.253748 44.895557 92.597471
179.128995 43.276801 92.366312
179.358415 41.361243 92.170612
180.401890 39.819799 91.930218
180.706956 37.939007 91.730364
181.506557 36.285486 91.503359
182.221982 34.593281 91.280976
182.611223 32.751173 91.076501
183.654698 31.209728 90.836106
183.715890 29.216859 90.649642
184.557455 27.582624 90.420333
184.820557 25.682546 90.222784
184.881748 23.689677 90.036320
185.440836 21.925625 89.822519
185.986415 20.155364 89.609461
186.047607 18.162495 89.422997
186.108799 16.169626 89.236533
187.081731 14.595762 89.000011
187.213465 12.635313 88.809674
187.274657 10.642444 88.623210
187.335849 8.649575 88.436746
187.397041 6.656706 88.250282
187.458232 4.663837 88.063818
187.519424 2.670968 87.877354
187.580616 0.678099 87.690890
187.641808 -1.314769 87.504426
186.695402 -2.934623 87.449032
186.756593 -4.927492 87.262568
186.817785 -6.920361 87.076103
186.512531 -8.777571 86.937307
185.932571 -10.533084 86.834245
185.993762 -12.525953 86.647781
185.978266 -14.490432 86.471293
185.108548 -16.138676 86.405922
185.169740 -18.131545 86.219458
184.223334 -19.751399 86.164064
184.078446 -21.667977 86.004407
183.338119 -23.364122 85.922205
183.399311 -25.356991 85.735741
182.452905 -26.976845 85.680347
182.178627 -28.845522 85.537521
181.525552 -30.573968 85.443970
180.621284 -32.209422 85.383094
179.674878 -33.829276 85.327700
179.566328 -35.759306 85.163316
178.789664 -37.441999 85.085841
177.843257 -39.061853 85.030447
176.894624 -40.680883 84.975342
175.950445 -42.301561 84.919658
175.004039 -43.921415 84.864263
174.222921 -45.602459 84.787368
173.569846 -47.330905 84.693817
172.204292 -48.795590 84.692946
171.551218 -50.524036 84.599394
170.272008 -52.020685 84.587291
169.532589 -53.717166 84.504972
168.379196 -55.260393 84.476502
167.513960 -56.910297 84.410549
166.148406 -58.374982 84.409678
164.782852 -59.839666 84.408807
164.129777 -61.568112 84.315256
162.764223 -63.032797 84.314384
161.398669 -64.497481 84.313513
160.033115 -65.962166 84.312642
158.667561 -67.426851 84.311771
157.302007 -68.891535 84.310900
155.936453 -70.356220 84.310029
154.570899 -71.820905 84.309158
153.205345 -73.285589 84.308286
151.839791 -74.750274 84.307415
150.474237 -76.214959 84.306544
149.108683 -77.679643 84.305673
147.743129 -79.144328 84.304802
146.377575 -80.609013 84.303931
145.012021 -82.073697 84.303060
143.336548 -82.853016 84.394203
141.967894 -84.310846 84.394252
140.602340 -85.775531 84.393381
139.130119 -87.004329 84.424179
137.558213 -88.012680 84.484574
136.030716 -89.119239 84.531783
134.481015 -90.176694 84.585586
132.835514 -91.022294 84.667831
131.381612 -92.291604 84.693190
129.791387 -93.259443 84.759023
128.425833 -94.724127 84.758152
126.747260 -95.496592 84.850216
125.182807 -96.521425 84.908398
123.703133 -97.733741 84.941409
122.083404 -98.636335 85.016002
120.533703 -99.693790 85.069804
118.980433 -100.743355 85.124666
117.301860 -101.515819 85.216729
115.623288 -102.288284 85.308793
113.892222 -102.944664 85.416442
112.266142 -103.833213 85.492921
110.587569 -104.605677 85.584985
108.908996 -105.378142 85.677049
107.250741 -106.195537 85.763081
105.701040 -107.252992 85.816883
104.151338 -108.310447 85.870685
102.194705 -108.468000 86.045305
100.609260 -109.446410 86.109719
99.059559 -110.503866 86.163521
97.158987 -110.785393 86.321496
95.517481 -111.639829 86.402555
93.967779 -112.697284 86.456357
92.123268 -113.102787 86.597688
90.425701 -113.833247 86.695391
88.453104 -113.955495 86.874751
86.883623 -114.969210 86.934425
85.095958 -115.500424 87.058879
83.341545 -116.105173 87.173459
81.738812 -117.045353 87.243006
79.799467 -117.241136 87.412494
78.249765 -118.298592 87.466296
76.257389 -118.377100 87.651528
74.707687 -119.434555 87.705330
72.715311 -119.513063 87.890562
70.728319 -119.603480 88.074195
69.173232 -120.649026 88.129596
67.180856 -120.727534 88.314828
65.631154 -121.784989 88.368630
63.638777 -121.863497 88.553862
61.709417 -122.081362 88.720385
60.096699 -122.999460 88.792896
58.104323 -123.077968 88.978128
56.111946 -123.156476 89.163360
54.562244 -124.213931 89.217163
52.569868 -124.292439 89.402395
50.577491 -124.370947 89.587627
48.585114 -124.449455 89.772859
47.028759 -125.492197 89.828636
45.043036 -125.585418 90.011893
43.050659 -125.663926 90.197125
41.058282 -125.742434 90.382357
39.065906 -125.820942 90.567589
37.383820 -126.585639 90.660696
35.523827 -126.956906 90.806623
33.531451 -127.035414 90.991855
31.539074 -127.113922 91.177087
29.546697 -127.192430 91.362319
27.554320 -127.270938 91.547551
25.561944 -127.349446 91.732784
23.569567 -127.427954 91.918016
21.577190 -127.506462 92.103248
19.584813 -127.584970 92.288480
17.592436 -127.663478 92.473712
15.600060 -127.741986 92.658944
13.607683 -127.820494 92.844176
11.615306 -127.899002 93.029408
9.814556 -128.401280 93.157746
9.161481 -130.129726 93.064195
8.357916 -131.802460 92.990219
7.142853 -133.322856 92.969772
6.465104 -135.042168 92.879431
5.124224 -136.515987 92.875350
3.758670 -137.980672 92.874479
3.105595 -139.709118 92.780927
1.740041 -141.173802 92.780056
0.374487 -142.638487 92.779185
-0.991067 -144.103171 92.778314
-2.356621 -145.567856 92.777443
-3.121341 -147.254971 92.698414
-4.688268 -148.068767 92.775955
-6.053822 -149.533451 92.775084
-7.419376 -150.998136 92.774213
-8.784930 -152.462820 92.773342
-10.266477 -153.670996 92.806909
-11.829057 -154.699970 92.864535
-13.194611 -156.164654 92.863663
-14.873184 -156.937119 92.955727
-16.238738 -158.401803 92.954856
-17.917311 -159.174268 93.046920
-19.282865 -160.638953 93.046049
-21.114386 -161.073182 93.183523
-22.664088 -162.130637 93.237325
-24.318584 -162.956346 93.322241
-25.763490 -164.245547 93.344929
-27.675729 -164.501275 93.506368
-29.305569 -165.381510 93.583963
-30.855270 -166.438965 93.637766
-32.711448 -166.818668 93.782560
-34.390021 -167.591133 93.874624
-35.947049 -168.632384 93.930602
-37.939426 -168.710892 94.115834
-39.489128 -169.768347 94.169636
-41.417331 -169.988771 94.335815
-43.031206 -170.904310 94.408670
-45.023582 -170.982818 94.593902
-46.766068 -171.613944 94.704942
-48.565661 -172.118781 94.832936
-50.558037 -172.197289 95.018168
-52.550414 -172.275797 95.203400
-54.106397 -173.319362 95.259067
-56.092492 -173.411760 95.442434
-58.084869 -173.490268 95.627666
-60.077246 -173.568776 95.812899
-62.069623 -173.647284 95.998131
-64.061999 -173.725792 96.183363
-66.054376 -173.804300 96.368595
-68.046753 -173.882808 96.553827
92.586420 67.972514 136.192862
90.940476 68.884173 136.486118
88.921433 68.781692 136.717014
87.084464 69.174116 136.978343
85.256447 69.590870 137.241167
83.592375 70.453254 137.531393
81.846330 71.092823 137.807918
80.318616 72.325849 138.120935
78.618061 73.089067 138.405063
77.026728 74.149168 138.707447
75.389793 75.085312 139.002208
73.907569 76.441986 139.322828
73.115878 78.125199 139.595240
72.252274 79.774405 139.872673
70.841964 81.165087 140.188272
70.144877 82.893035 140.454080
70.067739 84.914144 140.676608
69.157424 86.541262 140.957302
68.936903 88.494568 141.189839
69.474096 90.295617 141.315598
70.134491 92.052534 141.421951
70.794885 93.809450 141.528303
72.168020 95.311055 141.522386
73.541154 96.812660 141.516468
75.231722 97.626662 141.399984
77.108102 98.038170 141.218778
78.930291 98.567064 141.056449
80.697270 99.215550 140.913349
82.716313 99.318031 140.682453
84.653496 99.198004 140.437874
86.381300 98.508852 140.158300
88.400343 98.611333 139.927403
90.046286 97.699674 139.634147
91.901497 97.356833 139.375868
93.383720 96.000158 139.055248
95.357217 95.978836 138.816738
96.185277 94.394482 138.550405
97.931322 93.754912 138.273880
99.413546 92.398238 137.953260
101.159591 91.758668 137.676735
102.641814 90.401994 137.356115
103.433505 88.718781 137.083703
104.773380 87.294792 136.773021
105.016887 85.352356 136.538878
105.904216 83.714368 136.259789
106.600269 81.985930 135.994054
107.035052 80.133944 135.746558
107.112190 78.112835 135.524030
106.181362 76.452791 135.460276
105.398223 74.739843 135.373258
104.737828 72.982926 135.266905
103.364693 71.481321 135.272823
101.783799 70.429753 135.351107
100.213674 69.354855 135.425639
98.194631 69.252374 135.656536
96.602422 68.225312 135.738760
94.605463 68.074995 135.961965
1.884881 -30.180330 136.692951
0.268346 -29.267178 136.982844
-1.721290 -29.368167 137.210378
-3.552308 -29.038009 137.464423
-5.327461 -28.556003 137.727805
-7.001220 -27.798391 138.008133
-8.933632 -27.743839 138.245231
-10.550168 -26.830687 138.535124
-12.174588 -25.938964 138.823699
-13.899044 -25.319155 139.095555
-15.399776 -24.091231 139.404803
-17.084135 -23.362431 139.683360
-18.544769 -22.025517 139.999310
-20.005404 -20.688602 140.315259
-21.395942 -19.318540 140.626316
-22.236141 -17.688235 140.898952
-23.478885 -16.840635 141.137178
-24.531460 -15.310758 141.424640
-25.500801 -13.741521 141.706292
-25.660050 -11.789210 141.931389
-26.350472 -10.088079 142.193569
-26.788639 -8.267661 142.438138
-26.864653 -6.275990 142.657425
-26.940667 -4.284319 142.876712
-26.663064 -2.419318 143.040297
-26.084730 -0.662041 143.156511
-25.382274 1.050773 143.253174
-24.741879 2.785818 143.359613
-24.101484 4.520864 143.466052
-22.748350 6.000598 143.460220
-21.963218 7.422123 143.516245
-20.437387 8.527774 143.450261
-19.084253 10.007508 143.444429
-17.731118 11.487242 143.438598
-16.060551 12.279373 143.322200
-14.707416 13.759106 143.316368
-13.036848 14.551238 143.199970
-11.366280 15.343369 143.083572
-9.637484 16.009368 142.946892
-8.025145 16.927631 142.850776
-6.107131 17.183762 142.648189
-4.566415 18.257167 142.577020
-2.576779 18.358156 142.349486
-0.708007 18.720949 142.164051
0.953573 19.532550 142.050783
2.943208 19.633538 141.823249
4.932844 19.734527 141.595716
6.922479 19.835515 141.368182
8.912114 19.936504 141.140648
10.901750 20.037492 140.913114
12.626885 19.419529 140.641373
14.507921 19.225328 140.395688
16.497556 19.326317 140.168154
18.114092 18.413164 139.878261
20.052351 18.374504 139.642140
21.720263 17.601001 139.360834
23.501263 17.134886 139.098430
25.225719 16.515077 138.826574
26.942971 15.875685 138.553515
28.410810 14.558353 138.238769
30.135266 13.938544 137.966914
31.595901 12.601630 137.650964
33.056536 11.264715 137.335014
34.652550 10.295784 137.041692
35.551094 8.981454 136.795417
37.011728 7.644539 136.479467
37.781830 5.981087 136.211724
38.551932 4.317634 135.943982
39.403491 2.692701 135.670553
40.092136 0.990729 135.408497
40.532081 -0.828847 135.163804
40.608095 -2.820519 134.944517
40.684109 -4.812190 134.725230
40.408340 -6.677848 134.561356
39.828171 -8.434467 134.445431
39.840290 -10.403250 134.236209
38.972234 -12.056745 134.165631
38.040282 -13.687351 134.105118
36.888933 -14.665472 134.139729
36.154171 -16.366714 134.048155
34.895403 -17.880251 134.039122
33.542269 -19.359985 134.044954
32.189134 -20.839719 134.050785
30.576617 -21.757596 134.146963
29.165432 -23.111584 134.173015
27.495184 -23.904407 134.289302
25.954467 -24.977813 134.360471
24.413750 -26.051218 134.431640
22.483161 -26.280108 134.638607
20.883398 -27.225612 134.730343
19.142025 -27.864370 134.871403
17.353046 -28.400006 135.029046
15.363410 -28.500994 135.256579
13.812888 -29.553161 135.331164
11.833058 -29.675388 135.555282
9.843423 -29.776377 135.782816
7.853787 -29.877365 136.010350
5.864152 -29.978354 136.237884
3.874517 -30.079342 136.465417
