ply
format ascii 1.0
element vertex 1525
property float x
property float y
property float z
end_header
-99.805795 -27.484702 11.929435
-100.792673 -25.888299 12.010418
-101.750708 -24.280461 12.090144
-102.723165 -22.678341 12.170499
-103.540371 -21.014669 12.244090
-104.668078 -19.474101 12.331208
-105.609138 -17.859533 12.410195
-106.288069 -16.141039 12.477761
-106.580076 -14.269142 12.528470
-107.552533 -12.667022 12.608825
-108.324861 -10.985557 12.680460
-108.492074 -9.064183 12.725732
-109.464530 -7.462063 12.806087
-109.650748 -5.548224 12.852187
-110.404072 -3.859224 12.922994
-110.371156 -1.858505 12.959547
-111.343613 -0.256385 13.039902
-111.310697 1.744334 13.076455
-111.277782 3.745052 13.113008
-112.250238 5.347172 13.193363
-112.217323 7.347891 13.229916
-112.184407 9.348610 13.266469
-112.151492 11.349329 13.303022
-112.118576 13.350048 13.339575
-112.085661 15.350767 13.376128
-112.052745 17.351485 13.412681
-111.961758 19.327050 13.445783
-110.995167 20.923345 13.426855
-110.962251 22.924064 13.463408
-110.929336 24.924783 13.499961
-109.904673 26.495923 13.477582
-109.871757 28.496642 13.514135
-108.953612 30.113921 13.498086
-108.814179 32.068502 13.528309
-108.184653 33.810797 13.529410
-107.449538 35.507356 13.524237
-106.714424 37.203915 13.519063
-105.707275 38.782642 13.497725
-105.244194 40.597034 13.508716
-104.509079 42.293593 13.503543
-103.072693 43.686395 13.456698
-102.337579 45.382954 13.451524
-101.575709 47.067924 13.444761
-100.551046 48.639065 13.422382
-99.430963 50.168874 13.394333
-98.501720 51.781346 13.377624
-97.259462 53.258235 13.342314
-96.452395 54.923627 13.332865
-95.087962 56.347596 13.290296
-93.651576 57.740397 13.243451
-92.386659 59.207471 13.206796
-91.480075 60.829758 13.191433
-89.762847 61.511130 13.116628
-88.326461 62.903931 13.069783
-86.890075 64.296733 13.022939
-85.453690 65.689534 12.976094
-84.017304 67.082336 12.929249
-82.580918 68.475138 12.882404
-81.144532 69.867939 12.835559
-79.708146 71.260741 12.788715
-78.271760 72.653542 12.741870
-76.706164 73.719029 12.682161
-75.118146 74.727716 12.620220
-73.503622 75.669257 12.555640
-71.964533 76.801889 12.498571
-70.301081 77.619485 12.429120
-68.530077 78.164632 12.348961
-67.093692 79.557434 12.302116
-65.376464 80.238805 12.227311
-63.659236 80.920177 12.152507
-61.942009 81.601549 12.077702
-60.296286 82.464056 12.010016
-58.695015 83.439170 11.946756
-57.071168 84.357093 11.881248
-55.353940 85.038465 11.806443
-53.636712 85.719837 11.731638
-51.919485 86.401208 11.656833
-50.291490 87.308626 11.590912
-48.485029 87.763951 11.507224
-46.767802 88.445323 11.432419
-45.090508 89.227854 11.361590
-43.333347 89.808066 11.282810
-41.490796 90.171969 11.195528
-39.889525 91.147083 11.132268
-37.891084 91.116083 11.029466
-36.183595 91.822123 10.955631
-34.291372 92.060197 10.863404
-32.690102 93.035311 10.800144
-30.691661 93.004311 10.697342
-28.753001 93.124749 10.600492
-27.091949 93.948425 10.531280
-25.093508 93.917425 10.428478
-23.492237 94.892539 10.365218
-21.493796 94.861540 10.262416
-19.495355 94.830540 10.159614
-17.887952 95.790119 10.095744
-15.895643 95.774654 9.993552
-13.897202 95.743654 9.890751
-11.898761 95.712654 9.787949
-9.900321 95.681654 9.685147
-8.178447 96.351257 9.609880
-6.300609 96.625768 9.519085
-4.302168 96.594768 9.416284
-2.303727 96.563769 9.313482
-0.305286 96.532769 9.210680
1.693155 96.501769 9.107879
3.691596 96.470769 9.005077
5.690037 96.439769 8.902275
7.688478 96.408769 8.799474
9.686919 96.377769 8.696672
11.685360 96.346769 8.593870
13.683801 96.315769 8.491069
15.252178 95.291488 8.391279
17.250619 95.260488 8.288478
19.249060 95.229488 8.185676
21.247500 95.198488 8.082874
23.245941 95.167488 7.980073
24.885892 94.308514 7.879782
26.812759 94.112206 7.777482
28.811200 94.081206 7.674680
30.575907 93.510370 7.573516
32.378018 93.025925 7.472089
34.376459 92.994925 7.369287
35.961820 92.009869 7.269379
37.943277 91.939643 7.166696
39.653796 91.243654 7.065912
41.510095 90.884362 6.964105
43.345772 90.477439 6.862444
45.076913 89.829080 6.761515
46.733647 89.008867 6.661106
48.643731 88.773798 6.558924
50.212108 87.749517 6.459134
52.119560 87.508366 6.356970
53.778926 86.694235 6.256543
55.347303 85.669953 6.156754
57.201372 85.305509 6.054964
58.895310 84.571223 5.954295
60.482498 83.590390 5.854374
62.283184 83.102652 5.752957
63.977122 82.368366 5.652289
65.617694 81.510826 5.551994
67.186071 80.486545 5.452204
68.754833 79.463153 5.352412
70.322825 78.437981 5.252626
71.891202 77.413699 5.152837
73.532544 76.557939 5.052536
75.027956 75.365136 4.953258
76.616318 74.387011 4.853329
78.310255 73.652725 4.752660
79.733087 72.292290 4.653890
81.394029 71.481798 4.553452
82.869841 70.243727 4.454312
84.477803 69.310870 4.354245
85.867639 67.874228 4.255706
87.561576 67.139942 4.155038
88.951413 65.703300 4.056499
89.630344 63.984806 3.988932
91.020180 62.548164 3.890394
92.410016 61.111522 3.791855
93.799852 59.674880 3.693316
95.189689 58.238238 3.594778
96.883626 57.503952 3.494109
97.562557 55.785458 3.426543
98.952393 54.348816 3.328004
100.342230 52.912174 3.229465
101.253035 51.285611 3.151797
102.410997 49.757038 3.063360
103.197948 48.081371 2.991088
104.479764 46.601902 2.897255
105.158695 44.883408 2.829689
106.115318 43.275010 2.750024
107.087775 41.672890 2.669669
107.906393 40.009778 2.596017
109.032688 38.468650 2.508960
109.975160 36.854642 2.429912
109.972230 34.865811 2.392053
110.944686 33.263691 2.311698
111.917143 31.661571 2.231344
112.690883 29.980666 2.159647
112.856684 28.058732 2.114436
113.337839 26.261826 2.055486
113.796225 24.455893 1.997528
113.984795 22.542987 1.951326
114.735766 20.853054 1.880621
114.702851 18.852336 1.844068
114.669935 16.851617 1.807515
115.642392 15.249497 1.727160
115.609476 13.248778 1.690607
115.576561 11.248059 1.654054
115.543645 9.247340 1.617501
115.510730 7.246621 1.580948
115.477814 5.245903 1.544395
115.444899 3.245184 1.507842
115.062972 1.395640 1.492028
114.387320 -0.326676 1.493668
114.354405 -2.327395 1.457115
114.260170 -4.301553 1.424205
113.296827 -5.899254 1.442941
113.263911 -7.899973 1.406388
112.239248 -9.471114 1.428767
112.020982 -11.391547 1.403228
111.181670 -13.042973 1.414593
110.550752 -14.784665 1.413575
109.815637 -16.481225 1.418748
109.099429 -18.185973 1.422798
108.345408 -19.874343 1.429095
107.610293 -21.570902 1.434269
106.875178 -23.267462 1.439442
105.438792 -24.660263 1.486287
104.703677 -26.356822 1.491460
103.943200 -28.042396 1.498141
102.532177 -29.446183 1.543479
101.797062 -31.142742 1.548652
100.360676 -32.535544 1.595497
99.625561 -34.232103 1.600670
98.189175 -35.624905 1.647515
96.752789 -37.017706 1.694360
95.316403 -38.410508 1.741205
93.880017 -39.803310 1.788050
92.443631 -41.196111 1.834894
91.007246 -42.588913 1.881739
89.570860 -43.981715 1.928584
88.134474 -45.374516 1.975429
87.399359 -47.071075 1.980602
85.962973 -48.463877 2.027447
84.245745 -49.145249 2.102252
82.809359 -50.538050 2.149097
81.292134 -51.726070 2.203990
79.655746 -52.612223 2.270746
78.089593 -53.676298 2.330510
76.502132 -54.686397 2.392396
74.887051 -55.626526 2.457031
73.285780 -56.601640 2.520292
71.631291 -57.441941 2.588850
70.083238 -58.551868 2.646812
68.477678 -59.516115 2.710500
66.760450 -60.197486 2.785305
65.279426 -61.477210 2.836593
63.606836 -62.271659 2.906954
61.889609 -62.953031 2.981759
60.172381 -63.634403 3.056564
58.477172 -64.371553 3.129176
56.737926 -64.997146 3.206173
55.020698 -65.678518 3.280978
53.276190 -66.290781 3.358499
51.586243 -67.041261 3.430587
49.869015 -67.722632 3.505392
48.075207 -68.210009 3.587821
46.434560 -69.085376 3.655002
44.475495 -69.154123 3.753883
42.874224 -70.129237 3.817144
41.002036 -70.418060 3.907376
39.274513 -71.073351 3.983206
37.286739 -71.069374 4.084945
35.674801 -72.017466 4.149268
33.676360 -71.986466 4.252069
32.075089 -72.961580 4.315330
30.076648 -72.930580 4.418131
28.138918 -73.053372 4.514889
26.476936 -73.874694 4.584193
24.478495 -73.843694 4.686995
22.480054 -73.812694 4.789797
20.878784 -74.787808 4.853057
18.880343 -74.756808 4.955859
16.881902 -74.725809 5.058660
14.883461 -74.694809 5.161462
12.885020 -74.663809 5.264264
11.279661 -75.628566 5.327931
9.285308 -75.607923 5.430326
7.286867 -75.576923 5.533128
5.288426 -75.545923 5.635929
3.289985 -75.514923 5.738731
1.291544 -75.483923 5.841533
-0.706897 -75.452923 5.944334
-2.705338 -75.421924 6.047136
-4.703778 -75.390924 6.149938
-6.702219 -75.359924 6.252739
-8.700660 -75.328924 6.355541
35.705042 -144.050295 40.580231
34.117638 -143.055414 40.679445
32.120758 -143.061815 40.815234
30.123878 -143.068215 40.951024
28.126998 -143.074616 41.086813
26.130118 -143.081016 41.222603
24.133238 -143.087417 41.358392
22.136358 -143.093817 41.494182
20.312567 -142.676968 41.614511
18.552074 -142.105337 41.729185
16.609220 -141.979629 41.860149
14.967790 -141.116856 41.964188
12.970910 -141.123257 42.099978
10.974030 -141.129657 42.235767
9.492069 -139.876939 42.325562
7.799222 -139.139895 42.434195
5.802342 -139.146296 42.569984
3.805462 -139.152696 42.705774
2.218058 -138.157815 42.804987
0.378473 -137.779587 42.926727
-1.366226 -137.169335 43.039990
-3.324874 -137.082248 43.172365
-4.742233 -135.671560 43.256389
-6.537914 -135.185973 43.374207
-8.156037 -134.266208 43.476165
-9.862939 -133.563533 43.586052
-11.569842 -132.860857 43.695940
-13.276744 -132.158181 43.805828
-14.694103 -130.747493 43.889852
-16.471815 -130.217968 44.006065
-18.107907 -129.342141 44.109627
-19.646623 -128.228206 44.204492
-21.521711 -127.936790 44.329403
-23.223030 -127.231775 44.438890
-23.941605 -125.528284 44.472860
-25.648507 -124.825608 44.582748
-27.355409 -124.122932 44.692635
-28.996090 -123.258328 44.796608
-30.479670 -122.009568 44.886547
-31.897029 -120.598879 44.970572
-33.348827 -119.272404 45.057673
-35.021290 -118.485515 45.164484
-36.438649 -117.074826 45.248509
-38.111040 -116.287760 45.355314
-39.562910 -114.961462 45.442421
-40.275903 -113.255631 45.475991
-41.879343 -112.299963 45.576637
-43.235973 -111.660158 45.663264
-44.402699 -110.144450 45.729336
-46.057122 -109.313446 45.834535
-46.822594 -107.735943 45.872793
-48.239953 -106.325255 45.956817
-49.246132 -105.328964 46.016511
-50.659848 -103.916749 46.100275
-52.077207 -102.506060 46.184299
-53.593728 -101.337850 46.277181
-54.497101 -100.097554 46.327757
-55.914460 -98.686865 46.411781
-57.256108 -97.831142 46.495505
-58.334355 -96.278359 46.555239
-59.263494 -94.663098 46.604291
-60.464706 -93.161840 46.672833
-62.133304 -92.365500 46.779299
-62.272358 -90.496793 46.772434
-63.729769 -89.370710 46.861666
-65.273653 -88.331904 46.957538
-66.017488 -86.638997 46.993317
-67.434847 -85.228308 47.077342
-68.852206 -83.817620 47.161366
-69.565198 -82.111789 47.194936
-70.982557 -80.701100 47.278961
-71.695550 -78.995270 47.312530
-73.112909 -77.584581 47.396555
-73.825901 -75.878751 47.430125
-74.538894 -74.172920 47.463694
-75.956253 -72.762232 47.547719
-76.314276 -70.907663 47.555862
-77.408657 -69.415173 47.617218
-78.319446 -68.325380 47.669612
-79.097766 -66.646923 47.707861
-80.324617 -65.743097 47.783362
-80.813294 -63.943275 47.800864
-82.230653 -62.532586 47.884888
-82.943646 -60.826756 47.918458
-83.343264 -58.989616 47.929580
-84.369631 -57.415095 47.985597
-85.350650 -55.821572 48.038366
-86.354343 -54.237550 48.092759
-86.508609 -52.297603 48.086306
-87.925968 -50.886915 48.170331
-88.638960 -49.181084 48.203901
-89.372990 -47.484069 48.238977
-90.064945 -45.769423 48.271040
-90.384252 -43.898631 48.276410
-91.490930 -42.357762 48.338180
-92.391637 -40.730587 48.385196
-93.395330 -39.146565 48.439589
-93.629908 -37.240271 48.438889
-94.406592 -35.561128 48.477021
-95.055893 -33.828610 48.506028
-95.417853 -31.975690 48.514453
-96.421546 -30.391668 48.568846
-96.490505 -28.415976 48.556283
-97.432807 -26.806231 48.606278
-97.916490 -25.004315 48.623422
-98.444069 -23.220793 48.643710
-98.638108 -21.297513 48.640107
-99.455330 -19.635356 48.681143
-100.064093 -17.885852 48.707246
-100.466591 -16.049918 48.718575
-100.474160 -14.048503 48.701614
-100.794338 -12.178077 48.707046
-101.485421 -10.463065 48.739046
-102.220323 -8.766416 48.774185
-102.496682 -6.877628 48.776478
-102.504251 -4.876212 48.759517
-102.950568 -3.058640 48.773985
-103.515512 -1.290775 48.796950
-104.376553 0.353021 48.841124
-104.526773 2.294663 48.834382
-104.534342 4.296078 48.817421
-104.541910 6.297494 48.800460
-104.549478 8.298909 48.783499
-105.124050 10.062740 48.807154
-105.560740 11.884347 48.820931
-105.568308 13.885762 48.803971
-105.575877 15.887178 48.787010
-105.583445 17.888593 48.770049
-106.575914 19.477318 48.823638
-106.594706 21.474031 48.807481
-106.602275 23.475446 48.790520
-106.609843 25.476862 48.773559
-106.617411 27.478277 48.756598
-106.624980 29.479693 48.739638
-106.632548 31.481108 48.722677
-106.640117 33.482524 48.705716
-106.647685 35.483939 48.688755
-106.655253 37.485355 48.671794
-106.662822 39.486770 48.654833
-106.670390 41.488186 48.637872
-106.677959 43.489601 48.620912
-106.685527 45.491017 48.603951
-106.689499 47.490954 48.586758
-105.701407 49.082850 48.505695
-105.708975 51.084266 48.488734
-105.716543 53.085681 48.471774
-105.724112 55.087097 48.454813
-105.308873 56.914610 48.410631
-104.739991 58.678930 48.356557
-104.747560 60.680345 48.339596
-104.755128 62.681761 48.322635
-103.921739 64.337288 48.251532
-103.771008 66.273594 48.224380
-103.228172 68.048627 48.171983
-102.786887 69.865427 48.126125
-102.794456 71.866843 48.109164
-102.541113 73.760945 48.075405
-101.810336 75.458676 48.010908
-101.817904 77.460092 47.993947
-100.826215 79.050509 47.912653
-100.833784 81.051925 47.895692
-100.453905 82.893982 47.853787
-99.047249 84.313722 47.745776
-98.857975 86.234176 47.716142
-98.353682 88.025061 47.666227
-97.873854 89.826009 47.617886
-96.953534 91.445781 47.541187
-96.889734 93.417842 47.519631
-95.553386 94.866500 47.416147
-94.906356 96.598677 47.357042
-94.153237 98.287219 47.291107
-93.922236 100.190510 47.258786
-92.753089 101.707939 47.166067
-91.938859 103.371346 47.096197
-91.352941 105.128658 47.041027
-90.652867 106.839018 46.978507
-89.952792 108.549378 46.915987
-88.971361 110.144014 46.835352
-87.846063 111.679478 46.745456
-86.987983 113.324850 46.672763
-86.445914 115.100197 46.620416
-85.039259 116.519938 46.512405
-84.339184 118.230297 46.449885
-82.932529 119.650038 46.341874
-82.029540 121.276938 46.266290
-80.737299 122.568218 46.167178
-79.124253 123.493738 46.049453
-78.424178 125.204098 45.986933
-77.061313 126.641849 45.881742
-77.005312 128.579995 45.861012
-75.322484 129.338418 45.740004
-73.915828 130.758158 45.631993
-72.509172 132.177899 45.523982
-71.102517 133.597639 45.415971
-70.109708 135.187596 45.334604
-68.700896 136.021599 45.231561
-67.294241 137.441340 45.123551
-66.133170 138.962090 45.031351
-64.789683 139.618808 44.934296
-63.191074 140.578901 44.817251
-62.214434 141.627001 44.741715
-60.789453 143.002861 44.632841
-59.382798 144.422601 44.524830
-57.681251 145.136202 44.402941
-55.979705 145.849803 44.281051
-54.573049 147.269543 44.173040
-53.152423 148.655830 44.064372
-51.464847 149.402884 43.943140
-49.575702 149.667264 43.812420
-48.219642 150.895025 43.709525
-47.000453 151.675456 43.619839
-45.365243 152.547906 43.501071
-43.423731 152.686890 43.367888
-42.245512 154.091655 43.275535
-40.848482 154.695082 43.175306
-39.265639 155.692928 43.059003
-37.271761 155.706515 42.923355
-35.691919 156.711548 42.807193
-33.866110 157.127590 42.679455
-32.115198 157.722982 42.555242
-30.463017 158.554791 42.435675
-28.538477 158.734415 42.303291
-26.541597 158.740815 42.167501
-24.768596 159.283313 42.042248
-22.964875 159.752249 41.915550
-20.967996 159.758649 41.779760
-18.971116 159.765050 41.643971
-17.372630 160.725436 41.526931
-15.394394 160.776483 41.392019
-13.397514 160.782884 41.256230
-11.400634 160.789284 41.120440
-9.403755 160.795685 40.984651
-7.406875 160.802085 40.848861
-5.409995 160.808486 40.713072
-3.413115 160.814886 40.577282
-1.416235 160.821287 40.441493
0.580645 160.827687 40.305703
2.577525 160.834088 40.169914
4.574405 160.840488 40.034124
6.571285 160.846889 39.898335
8.158689 159.852007 39.799121
9.998177 159.473543 39.677390
11.742973 158.863527 39.564118
13.739853 158.869927 39.428328
15.697970 158.781542 39.296001
17.324137 157.881447 39.193325
19.111774 157.376190 39.076226
20.908421 156.892966 38.958322
22.815121 156.678852 38.830588
24.232480 155.268163 38.746563
26.080109 154.909605 38.624105
28.076989 154.916005 38.488316
29.664393 153.921124 38.389102
31.639174 153.873487 38.255287
33.056533 152.462798 38.171262
34.836081 151.937763 38.054885
36.759880 151.765459 37.925624
38.420365 150.949282 37.819882
40.007770 149.954401 37.720669
41.595174 148.959520 37.621455
43.297945 148.246744 37.511936
44.769982 146.969758 37.423028
46.711749 146.841392 37.292161
48.129108 145.430704 37.208136
49.836010 144.728028 37.098249
51.253369 143.317339 37.014224
52.707003 141.995353 36.926960
54.667173 141.911988 36.794449
56.084532 140.501299 36.710425
57.501891 139.090611 36.626400
59.208793 138.387935 36.516512
60.644024 137.020948 36.430891
62.333054 136.274571 36.322600
63.581756 135.379901 36.245534
64.821803 134.034431 36.172993
66.459851 133.163389 36.069255
67.996611 132.044669 35.974565
68.879745 130.754883 35.925798
70.297104 129.344194 35.841773
72.004006 128.641518 35.731886
72.716999 126.935688 35.698316
74.355289 126.065236 35.594557
75.594506 124.718929 35.522079
76.554253 123.116493 35.470834
78.533067 123.078720 35.336658
79.263690 121.416000 35.301514
80.600972 119.971757 35.223225
81.394042 118.299481 35.183919
83.100944 117.596805 35.074032
83.813936 115.890974 35.040462
85.485240 115.101250 34.933754
86.611131 113.640564 34.869978
87.666139 112.108334 34.811645
88.616302 111.058281 34.756228
89.366718 109.368131 34.719978
90.621473 108.475998 34.642478
91.786613 106.959625 34.576520
93.203972 105.548937 34.492496
93.916964 103.843106 34.458926
95.621281 103.134110 34.349269
95.637722 101.141650 34.365549
97.049851 99.728770 34.281899
97.762844 98.022939 34.248329
99.398645 97.146403 34.144792
100.182738 95.614433 34.104872
101.600097 94.203744 34.020847
102.313090 92.497914 33.987277
103.657482 91.056651 33.908480
104.443441 89.381395 33.869683
105.156434 87.675564 33.836113
106.573793 86.264875 33.752089
107.286786 84.559045 33.718519
108.675947 83.136541 33.636514
108.712771 81.147384 33.651380
110.130130 79.736695 33.567355
110.843122 78.030865 33.533785
111.694594 76.383060 33.490296
112.269107 74.619204 33.466646
113.699765 73.800777 33.376546
113.984635 71.915556 33.373643
114.711026 70.215339 33.339114
115.410621 68.503895 33.306504
116.716197 67.633057 33.225364
117.126149 65.800247 33.213501
117.727458 64.047619 33.187932
118.552134 62.388586 33.146362
118.738720 60.462182 33.150500
119.978119 58.976925 33.079222
120.746105 57.294138 33.041713
121.749798 55.710116 32.987320
122.117097 53.859433 32.978513
122.761060 52.124678 32.949888
123.543082 50.447773 32.911374
123.772321 48.539241 32.912456
124.776014 46.955219 32.858063
124.783582 44.953803 32.875024
125.690686 43.329309 32.827550
125.794844 41.368366 32.837592
126.798537 39.784344 32.783199
127.125297 37.916675 32.777295
127.809798 36.198907 32.745767
128.551282 34.505014 32.710156
128.821059 32.613469 32.708334
128.828628 30.612054 32.725295
129.281527 28.797239 32.710356
129.839889 27.026616 32.687863
130.707512 25.385578 32.643217
130.851150 23.441179 32.650431
130.858719 21.439763 32.667392
131.437757 19.677803 32.643417
131.869980 17.854326 32.629960
131.877548 15.852910 32.646920
131.885117 13.851495 32.663881
132.880994 12.264198 32.610048
132.896378 10.266057 32.626449
133.900071 8.682035 32.572056
135.019972 7.146706 32.509339
136.655145 6.268635 32.405858
138.652025 6.275035 32.270069
140.430221 5.746692 32.153813
141.847580 4.336003 32.069788
143.823713 4.291674 31.935852
145.550927 3.638665 31.824150
147.257829 2.935989 31.714262
148.995402 2.308312 31.601635
149.967267 1.235496 31.544942
151.585776 0.316677 31.442950
153.173180 -0.678204 31.343736
154.798430 -1.580544 31.241142
156.347989 -2.667966 31.145309
157.922691 -3.693908 31.047230
159.340050 -5.104597 30.963206
160.757409 -6.515286 30.879181
161.470401 -8.221116 30.845611
162.900471 -9.039789 30.755554
163.890296 -10.629622 30.702154
165.471999 -11.638443 30.603449
165.909335 -13.206094 30.587410
167.023183 -14.743959 30.525127
167.916721 -16.374138 30.478624
169.249363 -17.626150 30.398973
169.921891 -18.956420 30.364874
170.869063 -20.564126 30.314530
171.582055 -22.269956 30.280960
172.932970 -23.708486 30.201695
173.008040 -25.681617 30.213821
173.944232 -27.293924 30.164263
174.434025 -29.093278 30.146681
174.955493 -30.879361 30.126831
175.860010 -32.504939 30.079542
175.966754 -34.464799 30.089399
175.974323 -36.466214 30.106359
176.590255 -38.212715 30.079742
176.985584 -40.051652 30.068927
176.993152 -42.053067 30.085888
177.000721 -44.054483 30.102849
177.008289 -46.055898 30.119810
177.015857 -48.057314 30.136771
177.023426 -50.058729 30.153732
177.030994 -52.060145 30.170692
176.039306 -53.650563 30.251987
176.046874 -55.651978 30.268948
176.054442 -57.653394 30.285909
175.318831 -59.349137 30.350717
175.070322 -61.245227 30.384164
174.625264 -63.060476 30.430266
173.925190 -64.770835 30.492786
173.094513 -66.427478 30.563714
173.102081 -68.428893 30.580675
171.824968 -69.901915 30.680346
171.118704 -71.609728 30.743264
170.424819 -73.322634 30.805386
169.018164 -74.742374 30.913397
168.143638 -76.380981 30.987148
167.151949 -77.971399 31.068443
166.211360 -79.582834 31.146448
165.237278 -80.637061 31.221864
164.174668 -82.156891 31.307363
163.079067 -83.643886 31.394817
161.408119 -84.430755 31.515267
160.198129 -85.931385 31.610616
159.006498 -86.854715 31.699677
157.599842 -88.274455 31.807688
156.181332 -89.665809 31.916256
154.491640 -90.407796 32.037588
153.606083 -91.674002 32.108838
151.795129 -92.125617 32.235877
150.388473 -93.545357 32.343888
148.866559 -94.689100 32.457323
146.985381 -94.972559 32.587667
146.270923 -96.677002 32.651113
144.294430 -96.703693 32.785694
142.714588 -97.708726 32.901856
140.717708 -97.715127 33.037646
139.137867 -98.720159 33.153807
137.187793 -98.838642 33.287394
135.561145 -99.731593 33.405759
133.564266 -99.737993 33.541548
131.567386 -99.744394 33.677338
129.987544 -100.749427 33.793499
127.990664 -100.755827 33.929289
125.993784 -100.762228 34.065079
123.996905 -100.768628 34.200868
122.000025 -100.775029 34.336658
120.003145 -100.781429 34.472447
118.006265 -100.787830 34.608237
116.009385 -100.794230 34.744026
114.012505 -100.800631 34.879816
112.118784 -101.054053 35.010750
110.712128 -102.473793 35.118761
109.010582 -103.187394 35.240651
108.389422 -104.930211 35.298090
107.610433 -106.608113 35.365691
105.908887 -107.321714 35.487580
105.412141 -109.115703 35.537010
104.213848 -110.036294 35.626499
103.426548 -111.710777 35.694635
102.554770 -112.836984 35.763726
101.112153 -114.170614 35.873429
100.396559 -115.843809 35.936680
98.710533 -116.594574 36.057839
97.464417 -118.080345 36.155514
96.308912 -119.018534 36.242249
94.902257 -120.438275 36.350259
93.495601 -121.858015 36.458270
91.794055 -122.571616 36.580160
90.923575 -123.873925 36.650700
89.509125 -125.043571 36.757057
88.348326 -125.882117 36.843282
86.695923 -126.713397 36.962858
85.773076 -127.890310 37.035863
83.999412 -128.431217 37.161147
83.197827 -129.898502 37.228445
81.302900 -130.149038 37.359436
80.555500 -131.839932 37.425003
78.625698 -131.913095 37.556816
77.199734 -133.286599 37.665735
75.498187 -134.000199 37.787625
73.886174 -134.928194 37.905301
72.095095 -135.427401 38.031405
70.688439 -136.847141 38.139415
68.986892 -137.560742 38.261305
67.149769 -137.949693 38.389576
65.569928 -138.954726 38.505738
63.587363 -138.995404 38.640853
61.993207 -139.966159 38.757689
60.184270 -140.422605 38.884633
58.416485 -140.977592 39.009640
56.781177 -141.849806 39.128412
54.839764 -141.989026 39.261591
52.842884 -141.995426 39.397381
50.846004 -142.001827 39.533171
49.266163 -143.006860 39.649332
47.269283 -143.013260 39.785122
45.272403 -143.019661 39.920911
43.275523 -143.026061 40.056701
41.278643 -143.032462 40.192490
39.281763 -143.038862 40.328280
37.701479 -144.042834 40.444462
-67.852525 -138.839373 77.684845
-69.456205 -137.881558 77.855456
-71.447539 -137.934138 78.046106
-73.277372 -137.565775 78.228407
-75.042553 -137.028903 78.407366
-76.985307 -136.954862 78.595505
-78.637567 -136.123668 78.768627
-80.419130 -135.629493 78.948433
-82.136041 -134.966808 79.124898
-83.836261 -134.260619 79.300499
-85.439941 -133.302804 79.471111
-87.043621 -132.344990 79.641722
-89.003686 -132.316070 79.830755
-90.446485 -130.938929 79.993050
-92.163396 -130.276244 80.169515
-93.606194 -128.899103 80.331810
-95.048993 -127.521962 80.494105
-96.665700 -126.598104 80.665390
-98.208702 -125.482137 80.832865
-99.651500 -124.104996 80.995160
-101.094299 -122.727855 81.157455
-102.537097 -121.350714 81.319750
-103.283435 -119.662245 81.420368
-104.726234 -118.285104 81.582663
-106.169032 -116.907963 81.744959
-107.262658 -115.374736 81.876332
-108.358168 -113.842352 82.007872
-109.330726 -112.255006 82.128523
-109.850845 -110.465413 82.209107
-110.597183 -108.776943 82.309725
-111.447885 -107.135125 82.419585
-112.481919 -105.575260 82.545681
-113.515953 -104.015395 82.671777
-113.582536 -102.023064 82.712197
-114.599077 -100.455379 82.836743
-114.648168 -98.455228 82.875614
-115.682202 -96.895363 83.001710
-115.731293 -94.895212 83.040580
-115.921307 -92.958057 83.091931
-116.814418 -91.335197 83.205547
-116.863508 -89.335046 83.244418
-116.912599 -87.334895 83.283288
-116.961690 -85.334745 83.322159
-117.010781 -83.334594 83.361030
-117.059871 -81.334443 83.399900
-117.108962 -79.334292 83.438771
-116.591398 -77.552703 83.419404
-116.201878 -75.721727 83.413196
-116.250968 -73.721576 83.452067
-115.314598 -72.101522 83.389656
-115.343884 -70.109011 83.426491
-114.700342 -68.376012 83.394176
-114.436800 -66.496445 83.400916
-113.480625 -64.884030 83.336470
-112.712713 -63.199002 83.291373
-112.050169 -61.473331 83.257105
-111.617365 -59.659050 83.246449
-111.666456 -57.658899 83.285319
-112.638676 -56.071402 83.405941
-113.385014 -54.382933 83.506559
-114.827813 -53.005792 83.668854
-115.802592 -51.419439 83.789702
-117.016949 -49.940181 83.931767
-117.870660 -48.299709 84.041894
-119.206086 -46.874570 84.194680
-119.952424 -45.186101 84.295298
-120.972762 -43.620113 84.420181
-122.006796 -42.060248 84.546277
-122.887899 -40.432020 84.658829
-124.074864 -38.940518 84.798468
-124.380575 -37.055081 84.860065
-125.157989 -35.380502 84.963435
-126.192023 -33.820637 85.089530
-127.226057 -32.260772 85.215626
-127.365928 -30.301201 85.262536
-128.309182 -28.700756 85.380593
-128.858604 -26.924262 85.463772
-129.392306 -25.140740 85.545559
-129.654821 -23.235993 85.603330
-130.475431 -21.580724 85.710525
-131.147497 -19.859054 85.804566
-131.558556 -18.020709 85.875492
-131.607647 -16.020558 85.914363
-132.641681 -14.460693 86.040458
-132.690771 -12.460542 86.079329
-132.739862 -10.460391 86.118200
-132.839686 -8.482919 86.161563
-133.822987 -6.900375 86.283166
-133.872078 -4.900225 86.322037
-133.921168 -2.900074 86.360908
-133.970259 -0.899923 86.399778
-134.019350 1.100227 86.438649
-134.068441 3.100378 86.477520
-134.117531 5.100529 86.516390
-134.166622 7.100679 86.555261
-133.740305 8.917463 86.545272
-133.259538 10.713245 86.529686
-133.308628 12.713396 86.568557
-133.357719 14.713546 86.607427
-132.511792 16.368485 86.554312
-132.450635 18.326112 86.581852
-132.499725 20.326263 86.620723
-131.543550 21.938677 86.556277
-131.283280 23.819506 86.563353
-130.636466 25.551243 86.530701
-130.669024 27.545017 86.567873
-129.729382 29.163809 86.505126
-129.343938 30.996357 86.499337
-128.681394 32.722027 86.465070
-127.866122 34.388789 86.415105
-127.356308 36.173367 86.396534
-126.693765 37.899037 86.362266
-126.002863 39.613769 86.325084
-125.368678 41.350377 86.293730
-124.090512 42.838599 86.196192
-123.332761 44.527547 86.152139
-122.670218 46.253217 86.117871
-122.007675 47.978887 86.083603
-121.271078 49.675994 86.041724
-119.971758 51.156056 85.942012
-118.598385 52.607556 85.834688
-117.935842 54.333226 85.800420
-117.273298 56.058896 85.766152
-115.899925 57.510395 85.658828
-115.237382 59.236065 85.624561
-113.864008 60.687565 85.517237
-112.616411 62.187577 85.422840
-111.828091 63.864734 85.375645
-110.454718 65.316233 85.268322
-109.081344 66.767733 85.160998
-107.707971 68.219232 85.053674
-106.334597 69.670732 84.946350
-104.961224 71.122231 84.839027
-103.587850 72.573730 84.731703
-102.214477 74.025230 84.624379
-100.841103 75.476729 84.517055
-99.467730 76.928229 84.409732
-98.094356 78.379728 84.302408
-96.547096 79.437588 84.171637
-95.038803 80.583662 84.046121
-93.665430 82.035161 83.938797
-92.292056 83.486661 83.831473
-90.765346 84.591041 83.703474
-89.210729 85.632247 83.571711
-87.554324 86.443029 83.426224
-86.180951 87.894529 83.318900
-84.546878 88.755866 83.176423
-83.125398 90.098462 83.062613
-81.443218 90.850897 82.913650
-79.883028 91.879485 82.781136
-78.387666 93.054831 82.657363
-76.773794 93.961898 82.517611
-75.219177 95.003104 82.385848
-73.649934 96.011200 82.252113
-71.967754 96.763634 82.103150
-70.285575 97.516069 81.954187
-68.603396 98.268503 81.805224
-67.009375 99.220509 81.668148
-65.454758 100.261715 81.536386
-63.865664 101.224872 81.399974
-62.183484 101.977306 81.251011
-60.501305 102.729741 81.102048
-58.819126 103.482175 80.953085
-57.244957 104.479120 80.818686
-55.454767 104.987045 80.655159
-53.772588 105.739479 80.506196
-52.144389 106.614112 80.364512
-50.408229 107.244348 80.208270
-48.726050 107.996783 80.059307
-47.043821 108.749104 79.910337
-45.361691 109.501652 79.761381
-43.497870 109.842890 79.587925
-41.943253 110.884096 79.456162
-40.006348 111.059891 79.272852
-38.397302 111.977882 79.133750
-36.405967 112.030461 78.943101
-34.851350 113.071668 78.811338
-32.860016 113.124247 78.620689
-31.286646 114.122999 78.486398
-29.314065 114.218033 78.298277
-27.613481 114.928803 78.146832
-25.768114 115.311819 77.975865
-23.940317 115.734608 77.807267
-22.222163 116.405604 77.653453
-20.230829 116.458184 77.462804
-18.584973 117.292847 77.318738
-16.684878 117.551970 77.140392
-14.693544 117.604549 76.949742
-12.920824 118.152021 76.788571
-11.147593 118.698335 76.627330
-9.156258 118.750914 76.436681
-7.164924 118.803493 76.246031
-5.574495 119.763629 76.109440
-3.618973 119.897279 75.923619
-1.627639 119.949859 75.732970
0.363695 120.002438 75.542321
2.355030 120.055017 75.351671
4.071624 120.729543 75.198067
5.900981 121.148803 75.029259
7.892315 121.201383 74.838610
9.883649 121.253962 74.647960
11.874983 121.306541 74.457311
13.866317 121.359121 74.266661
15.857652 121.411700 74.076012
17.848986 121.464280 73.885363
19.840320 121.516859 73.694713
21.831654 121.569438 73.504064
23.822988 121.622018 73.313414
25.814323 121.674597 73.122765
27.805657 121.727177 72.932115
29.796991 121.779756 72.741466
31.788325 121.832335 72.550817
33.392005 120.874521 72.380205
35.383339 120.927101 72.189556
37.374673 120.979680 71.998906
39.366008 121.032259 71.808257
41.357342 121.084839 71.617608
43.051574 120.363042 71.442316
44.952356 120.179604 71.256347
46.943690 120.232183 71.065697
48.935024 120.284763 70.875048
50.538704 119.326948 70.704437
52.530038 119.379528 70.513787
54.521373 119.432107 70.323138
56.166405 118.582075 70.150389
58.116387 118.526872 69.961877
60.107721 118.579452 69.771228
61.711401 117.621637 69.600616
63.702735 117.674217 69.409967
65.306415 116.716402 69.239356
67.297749 116.768982 69.048706
69.007123 116.086651 68.872631
70.892763 115.863747 68.687445
72.715058 115.475738 68.505534
74.487777 114.958512 68.326185
76.148881 114.150369 68.152605
78.082791 114.053277 67.964924
79.686471 113.095463 67.794313
81.677805 113.148042 67.603663
83.290639 112.214087 67.432579
85.272819 112.242807 67.242402
86.876499 111.284993 67.071791
88.480179 110.327179 66.901180
90.432397 110.277804 66.712552
92.075193 109.421944 66.539919
93.866220 108.952435 66.359624
95.583131 108.289751 66.183159
97.273887 107.558894 66.008047
98.877567 106.601080 65.837436
100.481247 105.643266 65.666824
102.176663 104.924556 65.491471
104.076261 104.738031 65.305564
105.679941 103.780217 65.134952
107.327397 102.936502 64.962078
108.887301 101.864588 64.793730
110.490981 100.906774 64.623118
112.204018 100.233992 64.446854
113.920929 99.571307 64.270390
115.637841 98.908623 64.093926
117.080639 97.531482 63.931630
118.797550 96.868797 63.755166
120.500714 96.170281 63.579412
121.957260 94.828972 63.416406
123.674171 94.166287 63.239942
125.116969 92.789146 63.077647
126.559768 91.412005 62.915352
128.276679 90.749321 62.738887
129.719477 89.372180 62.576592
131.338819 88.455187 62.405171
132.879187 87.332354 62.237833
134.321985 85.955214 62.075537
135.764784 84.578073 61.913242
137.207582 83.200932 61.750947
138.924493 82.538247 61.574482
140.367291 81.161106 61.412187
141.810090 79.783965 61.249892
143.252888 78.406825 61.087597
144.695686 77.029684 60.925301
146.138485 75.652543 60.763006
147.581283 74.275402 60.600711
149.024081 72.898261 60.438416
150.466880 71.521120 60.276121
151.909678 70.143979 60.113825
152.656016 68.455510 60.013207
154.098814 67.078369 59.850912
155.158159 65.529818 59.722575
156.287951 64.012758 59.587999
157.226227 62.410087 59.470384
158.260261 60.850222 59.344288
159.223426 59.258678 59.224468
160.666224 57.881537 59.062173
161.412562 56.193067 58.961555
162.396397 54.610762 58.839905
163.430431 53.050897 58.713809
164.348037 51.438986 58.598024
165.094375 49.750517 58.497406
166.532533 48.371301 58.335522
166.587052 46.373577 58.296171
167.615658 44.811286 58.170556
168.649692 43.251420 58.044460
168.826066 41.308168 57.994317
169.732816 39.691405 57.879493
170.766850 38.131539 57.753398
171.065081 36.242758 57.692464
171.849975 34.571524 57.588431
171.899066 32.571373 57.549561
172.933100 31.011508 57.423465
173.353974 29.177550 57.351670
174.016225 27.451492 57.258498
174.065315 25.451341 57.219628
174.896528 23.800812 57.111493
175.148440 21.891325 57.054661
175.197531 19.891175 57.015790
175.246622 17.891024 56.976920
176.280656 16.331159 56.850824
176.329746 14.331008 56.811953
176.378837 12.330858 56.773083
176.427928 10.330707 56.734212
176.477019 8.330556 56.695341
176.526109 6.330405 56.656470
176.575200 4.330255 56.617600
176.624291 2.330104 56.578729
176.454349 0.414435 56.562370
175.717206 -1.282461 56.604304
175.766297 -3.282612 56.565434
175.815388 -5.282763 56.526563
175.225836 -7.036586 56.553329
174.908304 -8.895328 56.552138
174.957394 -10.895479 56.513267
174.001219 -12.507894 56.577713
173.997324 -14.487608 56.544288
173.094135 -16.120459 56.603289
173.143226 -18.120610 56.564418
172.187050 -19.733025 56.628864
172.057982 -21.664459 56.608304
171.279966 -23.345591 56.654439
170.732895 -25.115799 56.676839
170.070352 -26.841469 56.711107
169.407809 -28.567139 56.745375
168.460531 -30.182986 56.808907
168.082722 -32.018479 56.813911
166.709349 -33.469978 56.921234
166.046805 -35.195648 56.955502
165.384262 -36.921318 56.989770
164.684922 -38.632796 57.027820
163.348345 -40.098488 57.131362
162.685802 -41.824158 57.165629
161.312429 -43.275657 57.272953
160.649885 -45.001327 57.307221
159.276512 -46.452827 57.414545
157.942605 -47.919549 57.517812
157.240595 -49.629996 57.556136
156.578052 -51.355666 57.590404
155.204678 -52.807166 57.697728
153.831305 -54.258665 57.805052
152.457931 -55.710164 57.912375
151.200289 -57.206302 58.007805
150.422015 -58.887334 58.053967
149.048641 -60.338833 58.161291
147.675268 -61.790333 58.268615
146.301894 -63.241832 58.375938
144.928521 -64.693331 58.483262
143.555147 -66.144831 58.590586
142.045033 -67.286782 58.716348
140.499594 -68.348765 58.846873
139.126221 -69.800264 58.954196
137.752847 -71.251763 59.061520
136.379474 -72.703263 59.168844
134.708666 -73.481441 59.316274
133.323921 -74.907197 59.425131
131.950547 -76.358696 59.532454
130.268368 -77.111131 59.681418
128.894995 -78.562630 59.788741
127.372299 -79.676099 59.916200
125.839442 -80.766564 60.045028
124.263065 -81.758512 60.179725
122.708449 -82.799718 60.311487
121.101710 -83.722933 60.450278
119.599215 -84.882131 60.575012
118.044598 -85.923337 60.706775
116.363978 -86.679301 60.855528
114.681798 -87.431736 61.004491
112.999619 -88.184170 61.153454
111.626245 -89.635670 61.260778
109.944066 -90.388104 61.409741
108.280179 -91.181949 61.556237
106.579708 -91.892973 61.707667
104.897528 -92.645408 61.856630
103.215349 -93.397843 62.005593
101.624994 -94.358147 62.142174
100.070378 -95.399353 62.273937
98.477617 -96.354211 62.410843
96.524426 -96.493139 62.596349
94.969810 -97.534345 62.728112
93.122273 -97.912450 62.899371
91.440094 -98.664885 63.048334
89.869242 -99.669338 63.182286
88.075735 -100.169754 63.346260
86.323290 -100.763123 63.504698
84.402571 -100.975558 63.685826
82.777339 -101.856909 63.827110
81.038212 -102.480427 63.983752
79.231388 -102.950695 64.149522
77.673854 -103.985296 64.281678
75.685437 -104.044480 64.471934
74.000690 -104.791101 64.621243
72.139486 -105.138266 64.794346
70.327525 -105.596905 64.960809
68.593535 -106.232052 65.116758
66.654361 -106.402709 65.300374
65.047584 -107.325838 65.439170
63.056250 -107.378417 65.629819
61.299017 -107.960948 65.788903
59.510299 -108.472203 65.952231
57.518965 -108.524782 66.142881
55.634868 -108.820122 66.319070
53.973013 -109.618568 66.465293
51.981679 -109.671147 66.655942
49.990345 -109.723727 66.846592
48.288539 -110.431731 66.998201
46.444394 -110.817513 67.169004
44.453060 -110.870092 67.359653
42.461726 -110.922671 67.550303
40.470391 -110.975251 67.740952
38.642420 -111.397645 67.909574
36.924440 -112.069037 68.063364
34.933106 -112.121616 68.254013
32.941772 -112.174195 68.444663
30.950438 -112.226775 68.635312
28.959104 -112.279354 68.825962
26.967769 -112.331934 69.016611
24.976435 -112.384513 69.207261
22.985101 -112.437092 69.397910
20.993767 -112.489672 69.588559
19.002433 -112.542251 69.779209
17.011098 -112.594831 69.969858
15.019764 -112.647410 70.160508
13.028430 -112.699989 70.351157
11.037096 -112.752569 70.541806
9.355991 -111.996556 70.716420
7.442082 -111.847334 70.903067
5.450748 -111.899913 71.093717
3.459413 -111.952493 71.284366
1.468079 -112.005072 71.475016
-0.325017 -111.540958 71.655418
-2.126935 -111.099837 71.836276
-4.118269 -111.152417 72.026926
-6.109603 -111.204996 72.217575
-7.740888 -110.319132 72.389613
-9.704617 -110.299761 72.578836
-11.695952 -110.352341 72.769485
-13.687286 -110.404920 72.960135
-15.090711 -111.788390 73.071511
-15.753254 -113.514060 73.105778
-17.126627 -114.965559 73.213102
-18.500001 -116.417059 73.320426
-19.572653 -117.984548 73.396843
-20.535918 -119.594228 73.462017
-21.909291 -121.045728 73.569341
-23.282665 -122.497227 73.676665
-24.766131 -123.699502 73.798834
-26.338218 -124.701161 73.932952
-27.000761 -126.426831 73.967220
-28.682940 -127.179266 74.116183
-30.056314 -128.630765 74.223506
-31.738493 -129.383199 74.372469
-33.111866 -130.834699 74.479793
-35.065531 -130.972555 74.665363
-36.620147 -132.013761 74.797126
-38.174764 -133.054967 74.928888
-39.840584 -133.844437 75.075645
-41.522763 -134.596872 75.224609
-43.275332 -135.189959 75.383063
-45.195927 -135.402676 75.564174
-46.821283 -136.283745 75.705475
-48.560286 -136.907545 75.862100
-50.367234 -137.377531 76.027887
-52.358569 -137.430110 76.218536
-53.915629 -138.465784 76.350628
-55.904520 -138.523896 76.540948
-57.895854 -138.576475 76.731598
-59.887188 -138.629055 76.922247
-61.878522 -138.681634 77.112897
-63.869856 -138.734214 77.303546
-65.861191 -138.786793 77.494195
11.343023 -83.348295 78.150739
9.749104 -82.387456 78.385531
7.759099 -82.433565 78.593015
5.769094 -82.479673 78.800499
3.779089 -82.525781 79.007983
1.789084 -82.571890 79.215467
0.195165 -81.611050 79.450259
-1.794840 -81.657159 79.657743
-3.784845 -81.703267 79.865227
-5.443386 -80.906712 80.095564
-7.368769 -80.788536 80.307504
-9.142580 -80.285025 80.529893
-10.952693 -79.873806 80.749780
-12.942698 -79.919914 80.957264
-14.551333 -78.996485 81.191042
-16.526622 -79.005183 81.399540
-18.120542 -78.044344 81.634333
-20.110546 -78.090452 81.841817
-21.704466 -77.129613 82.076610
-23.659279 -77.086257 82.286520
-25.288390 -76.214883 82.518886
-27.078398 -75.752550 82.740159
-28.787957 -75.085697 82.966979
-30.466233 -74.339313 83.195955
-32.207076 -73.751990 83.420618
-33.916635 -73.085137 83.647438
-35.626195 -72.418284 83.874257
-37.237996 -71.502904 84.107817
-38.831915 -70.542065 84.342610
-40.474798 -69.705704 84.574027
-42.184357 -69.038851 84.800846
-43.893917 -68.371998 85.027666
-45.603476 -67.705144 85.254486
-47.197596 -66.744817 85.489264
-48.742520 -65.659418 85.727435
-50.385435 -64.823139 85.958850
-52.161638 -64.325712 86.181074
-53.591123 -62.946839 86.427204
-55.300682 -62.279986 86.654024
-56.761111 -60.979782 86.898020
-58.439726 -60.234260 87.126974
-59.869210 -58.855387 87.373104
-61.298695 -57.476515 87.619234
-62.728179 -56.097642 87.865363
-64.157663 -54.718769 88.111493
-65.587148 -53.339897 88.357623
-67.016632 -51.961024 88.603753
-68.446117 -50.582151 88.849883
-69.875601 -49.203279 89.096013
-71.305085 -47.824406 89.342143
-72.734570 -46.445533 89.588273
-74.164054 -45.066661 89.834403
-75.593539 -43.687788 90.080533
-76.842145 -42.229047 90.313008
-77.754023 -40.621619 90.520061
-78.880940 -39.109144 90.743349
-79.914507 -37.555449 90.959589
-80.919735 -35.989241 91.173690
-81.939132 -34.429290 91.388860
-82.805992 -32.801984 91.592515
-83.977927 -31.309387 91.819201
-84.966476 -29.735814 92.032043
-85.697476 -28.048518 92.225441
-86.048313 -26.193355 92.390139
-87.067710 -24.633404 92.605310
-87.890476 -22.986628 92.805636
-88.118698 -21.077324 92.961077
-89.138096 -19.517372 93.176247
-89.384991 -17.616314 93.333098
-90.189084 -15.961292 93.532014
-90.220676 -13.965164 93.672611
-91.240073 -12.405212 93.887781
-91.271664 -10.409083 94.028378
-91.303255 -8.412955 94.168974
-92.322653 -6.853003 94.384145
-92.354244 -4.856875 94.524741
-92.385835 -2.860746 94.665338
-92.417426 -0.864617 94.805934
-92.449017 1.131512 94.946531
-92.480609 3.127640 95.087127
-92.512200 5.123769 95.227724
-92.485185 7.097056 95.360546
-91.574499 8.725927 95.376144
-91.606091 10.722056 95.516740
-91.637682 12.718185 95.657337
-90.668390 14.324214 95.665161
-90.699981 16.320343 95.805757
-89.838188 17.968270 95.827841
-89.762281 19.922501 95.954178
-89.191766 21.683955 96.014902
-88.514689 23.403877 96.061489
-87.837613 25.123799 96.108077
-86.885997 26.736717 96.118246
-86.483460 28.563642 96.201253
-85.806383 30.283564 96.247841
-84.421576 31.727644 96.200544
-83.744499 33.447565 96.247132
-83.040421 35.156963 96.290138
-82.071129 36.762992 96.297962
-81.005538 38.331488 96.293011
-80.132546 39.975051 96.313610
-78.943654 41.495490 96.292303
-78.193962 43.187109 96.329258
-76.881770 44.659491 96.291594
-75.496962 46.103571 96.244298
-74.285204 47.615097 96.219957
-73.435078 49.267572 96.243589
-71.747872 50.013128 96.116252
-70.363064 51.457208 96.068955
-68.978257 52.901288 96.021659
-67.593449 54.345367 95.974362
-66.208641 55.789447 95.927066
-64.823834 57.233527 95.879769
-63.439026 58.677607 95.832473
-62.054218 60.121686 95.785176
-60.669411 61.565766 95.737880
-59.145476 62.688469 95.653758
-57.597397 63.755402 95.563246
-56.020778 64.756408 95.465180
-54.525383 65.945038 95.388612
-52.896080 66.824348 95.276602
-51.150971 67.436150 95.133938
-49.766163 68.880230 95.086642
-48.078957 69.625786 94.959304
-46.391750 70.371342 94.831967
-44.704544 71.116899 94.704630
-43.094331 72.040304 94.597672
-41.531982 73.074274 94.503383
-39.945324 74.052091 94.402659
-38.258118 74.797647 94.275322
-36.570912 75.543203 94.147985
-34.883705 76.288759 94.020648
-33.292582 77.256261 93.918742
-31.509293 77.779872 93.765973
-29.822087 78.525428 93.638636
-28.177879 79.370309 93.522680
-26.447674 80.016540 93.383962
-24.625525 80.450387 93.220907
-23.063177 81.484357 93.126618
-21.073172 81.530465 92.919134
-19.396451 82.300242 92.794572
-17.520818 82.610543 92.617361
-15.958469 83.644513 92.523072
-13.968464 83.690621 92.315588
-12.042829 83.885420 92.125142
-10.416110 84.770699 92.013815
-8.426105 84.816807 91.806331
-6.863756 85.850777 91.712042
-4.873751 85.896885 91.504558
-2.883746 85.942994 91.297074
-1.314794 86.961710 91.201037
0.668607 87.023072 90.995301
2.658612 87.069180 90.787817
4.648617 87.115288 90.580334
6.638622 87.161397 90.372850
8.330831 87.895398 90.244188
10.190976 88.241475 90.071077
12.180981 88.287583 89.863593
14.170986 88.333691 89.656109
16.160991 88.379800 89.448625
18.150996 88.425908 89.241141
20.141001 88.472016 89.033658
22.131006 88.518125 88.826174
24.121011 88.564233 88.618690
26.111016 88.610341 88.411206
28.101021 88.656450 88.203722
30.091026 88.702558 87.996238
31.684945 87.741719 87.761446
33.674950 87.787827 87.553962
35.664955 87.833936 87.346478
37.654960 87.880044 87.138994
39.644965 87.926152 86.931511
41.304803 87.132896 86.701263
43.228889 87.011422 86.489234
45.218894 87.057530 86.281750
46.993631 86.556374 86.059424
48.802818 86.142799 85.839474
50.792823 86.188907 85.631990
52.402384 85.267834 85.398276
54.376747 85.274177 85.189713
56.101578 84.646146 84.963947
57.960672 84.359446 84.747437
59.800772 84.024459 84.529618
61.544596 83.444715 84.305160
63.219890 82.690753 84.075978
65.128520 82.529984 83.862884
66.722439 81.569145 83.628091
68.628643 81.402212 83.414830
70.306363 80.654415 83.185815
71.900282 79.693575 82.951022
73.757322 79.401652 82.734371
75.466881 78.734799 82.507551
77.078126 77.818006 82.273953
78.886000 77.401092 82.053912
80.595559 76.734239 81.827092
82.255969 75.942436 81.596884
83.849888 74.981597 81.362091
85.444162 74.021660 81.127323
87.037726 73.059919 80.892506
88.631646 72.099079 80.657713
90.292765 71.309080 80.427553
91.819484 70.177401 80.188127
93.431809 69.263354 79.954604
95.141368 68.596501 79.727784
96.601241 67.294884 79.483749
98.280412 66.550775 79.254835
99.789080 65.373206 79.014164
101.419456 64.505049 78.781885
102.848940 63.126177 78.535755
104.558499 62.459323 78.308935
105.987984 61.080451 78.062805
106.718984 59.393154 77.869407
108.148468 58.014281 77.623277
109.577953 56.635409 77.377147
111.007437 55.256536 77.131018
112.436921 53.877663 76.884888
114.146481 53.210810 76.658068
114.877481 51.523513 76.464670
116.306965 50.144641 76.218540
117.736449 48.765768 75.972410
118.695273 47.179069 75.761812
119.896934 45.699599 75.532882
120.734067 44.059167 75.331471
122.057418 42.633430 75.093354
122.788418 40.946133 74.899956
123.792259 39.379312 74.685960
124.811656 37.819361 74.470789
125.679903 36.192667 74.267030
126.850451 34.699458 74.040448
127.840387 33.126498 73.827502
127.901440 31.143378 73.684681
128.920837 29.583427 73.469510
129.940234 28.023475 73.254340
130.764387 26.377311 73.053909
130.991223 24.467395 72.898573
131.527902 22.694294 72.719845
132.042211 20.911315 72.542806
132.291418 19.011277 72.385781
133.093200 17.355235 72.187039
133.124791 15.359106 72.046442
133.156382 13.362977 71.905846
134.175780 11.803026 71.690675
134.207371 9.806897 71.550079
134.238962 7.810768 71.409482
134.270553 5.814640 71.268886
134.302145 3.818511 71.128289
134.333736 1.822382 70.987693
134.365327 -0.173747 70.847096
134.044692 -2.032593 70.753225
133.427626 -3.775905 70.698676
133.459218 -5.772033 70.558080
133.428924 -7.744042 70.425692
132.521517 -9.374191 70.409659
132.553108 -11.370320 70.269063
131.583817 -12.976349 70.261239
131.428349 -14.899571 70.145457
130.646116 -16.578507 70.112818
130.074196 -18.339414 70.052281
129.397120 -20.059336 70.005693
128.739124 -21.786695 69.956574
128.042967 -23.499179 69.912517
127.365890 -25.219101 69.865929
126.688814 -26.939023 69.819342
