ply
format ascii 1.0
element vertex 1506
property float x
property float y
property float z
end_header
68.209676 47.615623 23.792425
69.668304 46.315536 23.693495
70.613038 45.186867 23.627673
72.020496 43.764539 23.531192
73.472660 42.945243 23.435594
73.716820 41.045798 23.408789
75.404131 40.292015 23.298918
77.122704 39.612914 23.187552
77.823124 37.900601 23.133419
79.230581 36.478273 23.036937
80.423454 34.967934 22.953308
80.631421 33.053646 22.928670
82.303606 32.263728 22.819524
83.741821 30.914875 22.721570
84.389843 29.181071 22.670575
85.142661 27.490248 22.613304
86.371727 25.994754 22.527507
87.250538 24.355607 22.462688
87.950958 22.643293 22.408555
88.344651 20.805178 22.372793
89.335594 19.212020 22.301259
90.052219 17.506353 22.246155
90.317576 15.615602 22.218080
90.308616 13.612343 22.206435
90.739405 11.789443 22.168452
91.290599 10.015926 22.123257
91.433207 8.074831 22.102534
92.272581 6.419508 22.040078
92.263622 4.416249 22.028433
92.254662 2.412990 22.016789
92.245702 0.409730 22.005144
92.236743 -1.593529 21.993499
92.227783 -3.596788 21.981855
92.218823 -5.600047 21.970210
92.209864 -7.603306 21.958566
92.200904 -9.606566 21.946921
91.604962 -11.363350 21.973403
91.186788 -13.194780 21.988337
90.877958 -15.072123 21.996170
90.172672 -16.782994 22.029754
89.446536 -18.485110 22.064691
88.162360 -19.952904 22.135875
88.153400 -21.956163 22.124230
87.010244 -22.896301 22.189829
86.145707 -24.540303 22.233757
85.349797 -25.748297 22.276058
84.138015 -27.124442 22.343283
83.153824 -28.718201 22.394982
82.156602 -29.735140 22.451007
81.125166 -31.293537 22.505870
80.013115 -32.833607 22.565873
78.592987 -34.244315 22.645887
77.172858 -35.655023 22.725901
76.191396 -36.710565 22.780709
74.458701 -37.355646 22.884889
73.742990 -39.062139 22.919150
72.322862 -40.472847 22.999164
70.613574 -41.175266 23.101534
69.193446 -42.585974 23.181548
67.642142 -43.675370 23.271704
65.774870 -43.990811 23.386290
64.354742 -45.401519 23.466304
62.870726 -46.655736 23.551257
60.871321 -46.647519 23.676059
59.226879 -47.508776 23.773416
57.517592 -48.211194 23.875786
56.097463 -49.621902 23.955800
54.100501 -49.619667 24.080413
52.510029 -50.613122 24.173597
50.510624 -50.604906 24.298399
48.681994 -51.014999 24.409996
46.972707 -51.717418 24.512367
45.330275 -52.583599 24.609568
43.330870 -52.575382 24.734370
41.331465 -52.567165 24.859171
39.740993 -53.560620 24.952356
37.741588 -53.552403 25.077157
35.742183 -53.544186 25.201958
33.742778 -53.535969 25.326760
32.141768 -54.503612 25.420759
30.152901 -54.521207 25.544746
28.153496 -54.512990 25.669547
26.154091 -54.504774 25.794348
24.154686 -54.496557 25.919150
22.155281 -54.488340 26.043951
20.155876 -54.480123 26.168753
18.156471 -54.471906 26.293554
16.157066 -54.463689 26.418355
14.157661 -54.455472 26.543157
12.158256 -54.447255 26.667958
-85.792516 -85.044443 32.593128
-87.372234 -84.037959 32.697825
-89.369829 -84.029750 32.822513
-90.949547 -83.023266 32.927210
-92.947143 -83.015057 33.051898
-94.596341 -82.174555 33.159919
-96.298009 -81.459400 33.270450
-97.999677 -80.744245 33.380981
-99.683892 -79.987396 33.490677
-101.263609 -78.980912 33.595373
-102.843327 -77.974429 33.700070
-104.510865 -77.177739 33.808968
-105.917049 -75.756698 33.905363
-107.582480 -74.954978 34.014160
-108.696373 -73.485759 34.092611
-109.739394 -71.946139 34.167068
-111.425715 -71.194320 34.276865
-112.674365 -70.293364 34.360262
-113.119492 -68.478154 34.399093
-114.821160 -67.762999 34.509624
-115.649835 -66.105098 34.571429
-116.926490 -64.630932 34.660065
-118.332674 -63.209890 34.756459
-118.622686 -61.331061 34.786000
-119.023930 -59.497853 34.822203
-120.430114 -58.076811 34.918598
-121.836297 -56.655770 35.014992
-122.586487 -54.965679 35.072095
-122.577535 -52.964232 35.083729
-123.568486 -51.372887 35.155253
-123.925846 -49.521680 35.188828
-124.550484 -47.780095 35.238411
-124.541533 -45.778648 35.250045
-124.532581 -43.777202 35.261679
-124.523630 -41.775756 35.273313
-124.514678 -39.774309 35.284947
-124.505727 -37.772863 35.296581
-124.496775 -35.771416 35.308215
-124.487824 -33.769970 35.319849
-123.691769 -32.099029 35.280359
-122.477527 -30.603685 35.213707
-122.262917 -28.688595 35.211983
-120.844074 -27.279164 35.132041
-119.462083 -25.854259 35.054493
-118.421646 -24.872805 34.995555
-117.002803 -23.463374 34.915613
-115.228759 -22.923997 34.808209
-113.586798 -22.061089 34.711017
-111.878795 -21.359947 34.608718
-110.459952 -19.950516 34.528777
-108.465176 -19.951819 34.404306
-106.467580 -19.960028 34.279618
-104.757626 -19.263668 34.177169
-102.881322 -18.974775 34.061858
-100.883726 -18.982985 33.937170
-98.886131 -18.991194 33.812481
-97.306413 -19.997678 33.707785
-95.308817 -20.005887 33.583096
-93.658511 -20.843742 33.475022
-91.731504 -21.020580 33.353711
-89.959691 -21.568165 33.239824
-88.258023 -22.283320 33.129293
-86.851839 -23.704361 33.032899
-84.994755 -24.048241 32.914933
-83.448503 -25.134671 32.811837
-81.835320 -26.061208 32.705539
-80.045167 -26.564981 32.590775
-78.638983 -27.986022 32.494381
-77.096166 -29.080659 32.391449
-75.566264 -30.136628 32.289559
-74.831985 -31.833245 32.233409
-73.359535 -33.095981 32.133844
-72.431170 -34.259426 32.068832
-71.024986 -35.680467 31.972438
-69.323318 -36.395622 31.861907
-68.615421 -38.103059 31.807337
-67.925025 -39.817675 31.753815
-66.630901 -40.699980 31.667694
-65.639951 -42.291325 31.596170
-65.532102 -44.244867 31.577540
-64.125918 -45.665908 31.481146
-62.719734 -47.086950 31.384751
-62.676052 -49.066809 31.369965
-61.685101 -50.658154 31.298441
-61.329332 -52.510014 31.264962
-60.630186 -54.221040 31.210915
-59.712153 -55.842292 31.143759
-59.721104 -57.843738 31.132125
-59.730056 -59.845185 31.120491
-59.739007 -61.846631 31.108857
-59.747959 -63.848077 31.097223
-59.756910 -65.849524 31.085589
-59.765862 -67.850970 31.073955
-59.774813 -69.852416 31.062321
-60.481672 -71.148582 31.098529
-61.782490 -72.432930 31.171868
-61.791441 -74.434377 31.160234
-63.000157 -75.345170 31.230103
-63.799118 -77.014891 31.269782
-64.804266 -78.598033 31.322853
-66.137010 -79.456746 31.400777
-67.555854 -80.866178 31.480719
-69.040954 -82.113312 31.565783
-71.038550 -82.105103 31.690472
-72.679861 -82.969604 31.787614
-74.624808 -83.090356 31.908232
-76.213471 -84.083818 32.001303
-78.211066 -84.075609 32.125991
-79.801030 -85.065884 32.219163
-81.797325 -85.060862 32.343751
-83.794920 -85.052652 32.468440
-1.055934 -146.439559 42.300456
-2.630760 -145.437960 42.485160
-4.620048 -145.435807 42.699880
-6.609336 -145.433655 42.914600
-8.598623 -145.431502 43.129319
-10.587911 -145.429350 43.344039
-12.404040 -145.009636 43.546218
-14.152025 -144.425598 43.743463
-16.141313 -144.423446 43.958182
-17.785025 -143.587959 44.147875
-19.705427 -143.419694 44.357606
-21.694715 -143.417541 44.572326
-22.462213 -141.874181 44.677878
-24.261964 -141.414973 44.878871
-26.251252 -141.412821 45.093591
-27.843198 -140.452504 45.279535
-29.539170 -139.743040 45.473012
-31.390192 -139.407470 45.677719
-32.851239 -138.876042 45.843222
-33.957442 -137.404902 45.984264
-35.912330 -137.319798 46.196492
-37.521556 -136.401150 46.383688
-39.096382 -135.399551 46.568392
-40.707178 -134.484690 46.755701
-42.660496 -134.395799 46.967816
-43.395326 -132.773661 47.071002
-44.813284 -131.393784 47.244346
-46.787270 -131.354732 47.457957
-48.190174 -129.938553 47.630211
-49.593077 -128.522373 47.802465
-51.527051 -128.386834 48.013179
-52.704395 -126.986975 48.160849
-53.684129 -125.395164 48.290019
-55.254665 -124.383220 48.474413
-56.829492 -123.381621 48.659117
-57.775180 -122.267955 48.777574
-59.396741 -121.379053 48.965662
-60.170260 -119.850210 49.071650
-61.573163 -118.434030 49.243904
-62.621503 -117.455775 49.371445
-64.116778 -116.374469 49.548738
-65.664215 -115.306821 49.731458
-67.067118 -113.890642 49.903712
-67.766226 -112.182361 50.004311
-69.169129 -110.766181 50.176565
-70.865102 -110.056717 50.370043
-71.545482 -108.340664 50.468735
-72.263316 -106.640156 50.571241
-73.666220 -105.223976 50.743494
-75.069124 -103.807796 50.915748
-75.768231 -102.099516 51.016347
-76.495660 -100.402989 51.119830
-77.870242 -98.975055 51.289200
-78.569349 -97.266774 51.389799
-79.972253 -95.850595 51.562052
-81.375157 -94.434415 51.734306
-82.074264 -92.726134 51.834905
-82.435874 -90.877780 51.901143
-83.472479 -89.309573 52.036103
-84.875382 -87.893393 52.208357
-85.405981 -86.115175 52.291800
-86.273597 -84.476832 52.409555
-86.972705 -82.768551 52.510154
-87.380770 -80.939478 52.581122
-88.370919 -79.351990 52.711352
-89.360841 -77.764408 52.841559
-90.350877 -76.176873 52.971778
-90.345595 -74.176245 53.000662
-91.167349 -72.518867 53.113748
-91.866457 -70.810586 53.214347
-92.320384 -69.000547 53.289984
-93.264671 -67.394025 53.415545
-93.963779 -65.685744 53.516144
-94.295172 -63.824849 53.579306
-94.289890 -61.824221 53.608190
-95.279926 -60.236686 53.738409
-95.274643 -58.236058 53.767293
-96.051723 -56.560139 53.875830
-96.750831 -54.851858 53.976429
-97.249432 -53.060360 54.056614
-97.445249 -51.143196 54.105973
-98.234185 -49.472197 54.215717
-98.228903 -47.471569 54.244601
-98.223620 -45.470941 54.273485
-99.213656 -43.883406 54.403704
-99.208374 -41.882778 54.432588
-99.528505 -40.017209 54.494603
-100.193127 -38.294615 54.591691
-100.187844 -36.293987 54.620575
-100.922031 -34.600266 54.724745
-101.172598 -32.705824 54.779678
-101.167315 -30.705196 54.808562
-101.162033 -28.704568 54.837446
-101.156750 -26.703940 54.866329
-101.151468 -24.703312 54.895213
-102.141504 -23.115777 55.025432
-102.136221 -21.115149 55.054316
-102.130939 -19.114521 55.083200
-102.125656 -17.113893 55.112084
-102.120374 -15.113265 55.140968
-102.115091 -13.112637 55.169852
-102.109809 -11.112009 55.198736
-102.104527 -9.111381 55.227620
-102.099244 -7.110753 55.256504
-102.093962 -5.110125 55.285388
-102.088679 -3.109497 55.314272
-102.083397 -1.108869 55.343156
-102.078114 0.891759 55.372040
-102.072832 2.892388 55.400923
-102.067549 4.893016 55.429807
-102.062267 6.893644 55.458691
-102.056985 8.894272 55.487575
-101.881996 10.823943 55.497099
-101.053289 12.480283 55.432049
-101.048006 14.480911 55.460933
-101.042724 16.481539 55.489817
-101.037441 18.482167 55.518701
-101.032159 20.482795 55.547585
-100.442248 22.238980 55.509776
-100.028463 24.068807 55.492059
-100.023181 26.069435 55.520943
-99.024767 27.654818 55.436532
-99.019485 29.655446 55.465416
-99.008374 31.653637 55.493635
-98.015789 33.241457 55.409890
-98.010506 35.242085 55.438774
-98.005224 37.242714 55.467658
-97.006811 38.828097 55.383248
-97.001528 40.828725 55.412132
-96.866377 42.775053 55.426201
-95.997832 44.414736 55.356606
-94.999419 46.000120 55.272195
-94.742003 47.895327 55.272317
-93.995723 49.586131 55.216669
-93.990441 51.586759 55.245553
-93.319880 53.309223 55.198544
-91.993614 54.757526 55.076733
-91.988331 56.758154 55.105617
-91.195506 58.429497 55.044660
-90.984636 60.344165 55.050091
-89.986222 61.929548 54.965681
-89.071133 63.549771 54.890776
-88.982526 65.515560 54.910154
-88.357134 67.256909 54.868298
-87.649009 68.963667 54.817003
-86.980417 70.686954 54.770218
-86.232760 72.377183 54.714414
-85.524636 74.083941 54.663119
-84.114262 75.497077 54.531713
-83.979894 77.443732 54.545872
-83.163624 78.625698 54.475179
-81.984614 80.028776 54.368595
-81.979332 82.029404 54.397479
-80.986554 83.617144 54.313712
-79.982505 85.200170 54.228659
-80.385035 87.031541 54.299063
-80.967258 88.788333 54.387762
-81.783250 90.448102 54.500261
-82.482357 92.156383 54.600860
-82.942047 93.964031 54.677083
-82.936764 95.964659 54.705967
-82.931482 97.965287 54.734851
-82.926200 99.965915 54.763735
-82.920917 101.966543 54.792619
-82.915635 103.967171 54.821503
-81.965657 105.572806 54.742618
-81.911939 107.553183 54.765977
-81.906656 109.553811 54.794861
-80.543533 110.986703 54.668845
-79.909830 112.724577 54.626040
-79.829534 114.693841 54.646367
-78.419159 116.106977 54.514961
-77.711035 117.813735 54.463667
-76.909307 119.481355 54.401694
-76.043773 120.613591 54.324953
-74.595077 121.933040 54.188032
-73.886953 123.639798 54.136738
-72.917200 125.237165 54.055597
-71.479119 126.052346 53.912398
-70.708812 127.607085 53.852154
-69.071286 128.464894 53.688058
-68.363162 130.171652 53.636764
-66.663453 130.877442 53.463719
-64.970790 131.600457 53.291688
-63.553370 132.996368 53.159268
-62.802161 134.597795 53.101773
-60.856202 134.701570 52.893289
-59.232767 135.593828 52.731221
-57.746119 136.820495 52.588838
-56.335745 138.233631 52.457433
-54.492447 138.588385 52.263723
-52.646992 138.937865 52.069703
-50.923053 139.584418 51.893171
-48.933765 139.582265 51.678451
-47.258531 140.347889 51.508929
-45.364371 140.578298 51.307899
-43.375083 140.576145 51.093180
-41.580734 141.050567 50.906515
-39.805689 141.572178 50.722628
-37.892957 141.385415 50.513452
-36.241575 140.568427 50.323204
-34.497844 141.166596 50.143823
-33.081361 142.564798 50.011538
-31.098427 142.578176 49.797733
-29.688052 143.991312 49.666328
-28.277678 145.404447 49.534922
-26.760935 146.557539 49.388208
-25.167595 147.523373 49.230471
-23.467887 148.229163 49.057426
-22.057512 149.642298 48.926021
-20.440509 150.550281 48.764878
-18.658095 151.053878 48.579930
-17.247721 152.467014 48.448525
-15.291008 152.544499 48.238493
-13.558968 153.171248 48.060795
-12.130795 154.540870 47.926828
-10.141507 154.538718 47.712109
-8.459841 155.288617 47.541660
-6.981294 156.535088 47.400443
-4.992007 156.532936 47.185724
-3.360715 157.405987 47.022525
-1.661006 158.111777 46.849480
0.157494 158.527154 46.659339
2.027747 158.816011 46.461750
3.438121 160.229147 46.330345
5.306995 160.521373 46.132954
7.296283 160.519220 45.918235
9.115917 160.931825 45.727931
10.865677 161.515253 45.547683
12.854965 161.513101 45.332963
14.504378 162.341849 45.167156
16.424359 162.509134 44.962411
18.413647 162.506981 44.747692
20.402935 162.504829 44.532972
22.392222 162.502676 44.318252
24.160262 163.041415 44.135374
25.961617 163.498709 43.947700
27.950904 163.496556 43.732981
29.940192 163.494404 43.518261
31.929480 163.492251 43.303542
33.521753 162.532724 43.117574
35.493594 162.488500 42.904118
37.482882 162.486347 42.689398
39.472169 162.484195 42.474678
41.461457 162.482042 42.259959
43.450745 162.479890 42.045239
45.025571 161.478291 41.860535
47.014859 161.476138 41.645815
48.847940 161.097304 41.442408
50.578973 160.472386 41.246392
52.532953 160.385091 41.034229
53.935856 158.968911 40.861975
55.717913 158.467035 40.662263
57.707201 158.464883 40.447544
59.401991 158.167656 40.260263
60.309017 156.545669 40.138495
62.263738 156.460162 39.926279
64.253026 156.458010 39.711559
64.986205 154.831891 39.608493
66.682177 154.122427 39.415015
68.395102 153.453842 39.220310
70.074121 152.703499 39.028060
71.544754 151.450644 38.850901
73.466065 151.284570 38.641104
74.868969 149.868391 38.468851
76.564941 149.158927 38.275373
77.967845 147.742747 38.103119
79.256694 146.864312 37.951092
80.411309 145.441679 37.805539
82.351965 145.322253 37.594341
83.754868 143.906074 37.422087
84.453976 142.197793 37.321488
86.128211 141.435912 37.129585
87.703037 140.434313 36.944880
89.179084 139.333740 36.769380
89.947931 137.654404 36.661680
91.160702 136.744394 36.517398
92.423075 135.429730 36.361805
94.038982 134.527195 36.174126
94.738090 132.818914 36.073527
96.150689 131.426116 35.900571
97.836965 130.693271 35.707795
99.094645 129.216818 35.550327
99.938976 127.568810 35.434943
101.341880 126.152631 35.262689
102.064752 124.454213 35.159670
103.443891 123.028170 34.989836
104.846795 121.611990 34.817583
106.249698 120.195811 34.645329
107.020213 118.517167 34.537460
108.010248 116.929632 34.407241
109.050817 115.363070 34.271877
109.990320 113.754562 34.146803
110.980355 112.167027 34.016584
111.851935 110.530329 33.898425
112.960427 108.991957 33.756146
113.250150 107.113767 33.697227
114.653053 105.697587 33.524974
115.930534 104.229352 33.365489
116.755064 102.573127 33.252121
116.915287 100.641190 33.206387
117.905323 99.053655 33.076168
118.852387 97.448285 32.950324
119.551494 95.740004 32.849725
120.250602 94.031724 32.749126
121.653505 92.615544 32.576872
121.860183 90.702887 32.526408
121.854900 88.702259 32.497524
122.844936 87.114724 32.367305
123.042342 85.198219 32.317785
123.829689 83.526561 32.208202
124.819725 81.939026 32.077983
124.814442 79.938398 32.049100
125.804478 78.350863 31.918881
126.537879 76.656816 31.814790
126.789231 74.762700 31.759778
126.783949 72.762072 31.730894
127.773985 71.174537 31.600675
127.768702 69.173909 31.571791
128.625824 67.531210 31.455104
129.324932 65.822930 31.354505
129.743491 63.998211 31.282469
129.738209 61.997583 31.253585
129.732926 59.996955 31.224701
129.727644 57.996327 31.195817
130.709080 56.405223 31.066474
130.712397 54.408164 31.036715
130.707114 52.407536 31.007831
131.697150 50.820001 30.877612
131.691868 48.819373 30.848728
131.686585 46.818745 30.819844
132.088540 44.987135 30.749498
132.671338 43.230582 30.660741
132.666056 41.229954 30.631857
132.660774 39.229326 30.602973
132.655491 37.228698 30.574089
132.650209 35.228070 30.545205
132.644926 33.227442 30.516321
132.639644 31.226814 30.487437
132.754826 29.276183 30.446289
133.624397 27.638651 30.328334
133.619115 25.638023 30.299451
133.613832 23.637395 30.270567
133.608550 21.636767 30.241683
132.610136 20.051384 30.326093
132.849633 18.152348 30.272288
133.594890 16.463221 30.166990
132.932813 14.737209 30.213032
132.591194 12.877209 30.222516
132.585911 10.876581 30.193632
132.580629 8.875953 30.164748
132.575346 6.875325 30.135864
132.201190 5.028930 30.149061
131.571651 3.289314 30.191391
131.566368 1.288686 30.162507
131.561086 -0.711942 30.133623
131.555803 -2.712570 30.104739
131.550521 -4.713198 30.075855
130.761441 -6.386108 30.136385
130.546825 -8.299210 30.131381
130.541542 -10.299838 30.102497
129.543129 -11.885221 30.186907
129.537847 -13.885849 30.158023
129.327568 -15.800765 30.152525
128.534151 -17.471861 30.213549
128.528868 -19.472489 30.184666
127.905444 -21.214661 30.226298
127.525172 -23.058500 30.240192
127.519890 -25.059128 30.211308
127.185570 -26.922180 30.219960
125.775196 -28.335316 30.351365
125.517781 -30.230523 30.351244
125.061197 -32.042454 30.373844
124.514085 -33.816534 30.406770
124.508802 -35.817162 30.377886
123.349739 -36.749005 30.489256
122.513522 -38.402205 30.555163
122.508240 -40.402833 30.526279
121.927615 -42.162901 30.563029
121.219490 -43.869659 30.614323
120.506130 -45.574228 30.666215
119.803242 -47.283175 30.716913
119.502435 -49.160239 30.721742
119.905960 -50.991197 30.651236
121.308864 -52.407377 30.478983
122.474088 -53.337121 30.339541
123.464124 -54.924656 30.209322
124.403051 -56.533403 30.084307
125.956595 -57.586322 29.901144
127.431095 -58.688444 29.725787
128.201034 -60.367327 29.617976
128.900141 -62.075608 29.517377
129.405884 -63.864142 29.436465
130.298356 -65.492169 29.316179
131.994328 -66.201633 29.122702
132.377538 -68.041023 29.054265
133.367574 -69.628558 28.924046
133.387854 -71.618576 28.892559
134.352327 -73.216721 28.764943
134.347044 -75.217349 28.736059
135.337080 -76.804884 28.605840
136.184284 -78.451699 28.490163
136.321833 -80.393047 28.446737
136.316551 -82.393675 28.417853
137.306586 -83.981210 28.287634
137.301304 -85.981838 28.258750
137.296022 -87.982466 28.229866
137.290739 -89.983094 28.200982
137.285457 -91.983722 28.172099
137.280174 -93.984350 28.143215
137.274892 -95.984978 28.114331
137.269609 -97.985606 28.085447
137.264327 -99.986234 28.056563
136.983086 -101.871479 28.059160
136.260631 -103.572246 28.112089
136.255349 -105.572874 28.083205
136.250066 -107.573502 28.054321
135.251653 -109.158885 28.138731
134.253239 -110.744268 28.223141
134.138838 -112.699272 28.206705
132.728464 -114.112408 28.338111
132.251130 -115.915663 28.363078
131.919133 -117.586484 28.374309
130.314756 -118.525336 28.533634
130.250567 -120.501334 28.511470
129.252154 -122.086718 28.595881
127.901048 -122.938264 28.729158
126.490674 -124.351400 28.860563
125.782549 -126.058158 28.911858
125.074425 -127.764916 28.963153
123.664051 -129.178051 29.094558
122.270089 -130.598049 29.224092
121.256218 -131.590599 29.318898
119.669105 -132.571657 29.475739
118.146135 -133.709525 29.623349
117.286398 -135.352891 29.691939
115.920370 -136.567181 29.821486
114.038592 -136.827863 30.020733
112.628218 -138.240998 30.152139
111.180050 -139.561737 30.288984
109.228801 -139.652578 30.498229
107.818426 -141.065714 30.629635
106.118718 -141.771503 30.802680
104.450443 -142.554141 30.971201
102.719300 -143.183083 31.148770
101.290230 -144.550512 31.282866
99.300942 -144.548359 31.497586
97.330838 -144.593107 31.709544
95.731548 -145.544392 31.868138
93.742260 -145.542240 32.082858
91.942377 -146.003131 32.270319
90.172866 -146.538273 32.453410
88.183578 -146.536120 32.668129
86.194290 -146.533968 32.882849
84.205002 -146.531815 33.097568
82.215715 -146.529663 33.312288
80.226427 -146.527510 33.527008
78.237139 -146.525358 33.741727
76.247851 -146.523205 33.956447
74.258564 -146.521053 34.171166
72.342204 -146.343039 34.380604
70.694450 -145.517301 34.570590
68.705162 -145.515149 34.785310
66.961219 -144.921362 34.982261
65.265247 -144.211898 35.175739
63.566222 -143.509798 35.369438
61.873303 -142.792969 35.562694
60.416569 -141.506599 35.738847
58.427281 -141.504447 35.953566
57.489183 -140.372476 36.071473
55.860032 -139.501879 36.260111
54.097239 -138.953548 36.458428
52.654261 -138.139082 36.626148
51.702160 -136.535803 36.752505
50.143130 -135.496112 36.936065
48.153842 -135.493959 37.150785
46.164554 -135.491807 37.365504
44.175266 -135.489654 37.580224
42.630427 -136.574059 37.730981
41.015053 -137.486025 37.891889
39.231009 -137.985639 38.077071
37.820635 -139.398774 38.208477
35.865552 -139.480244 38.418274
34.285446 -140.478429 38.574106
32.432174 -140.808798 38.769251
30.716052 -141.474462 38.944658
28.743421 -141.513032 39.156981
27.146657 -142.470495 39.315211
25.157370 -142.468342 39.529930
23.577263 -143.466528 39.685763
21.944586 -144.336192 39.849161
20.007869 -144.462561 40.056315
18.018581 -144.460408 40.271034
16.029293 -144.458256 40.485754
14.040006 -144.456103 40.700474
12.459899 -145.454289 40.856306
10.470611 -145.452136 41.071026
8.481324 -145.449984 41.285745
6.610906 -145.738437 41.483358
4.911929 -146.446017 41.656297
2.922642 -146.443864 41.871017
0.933354 -146.441712 42.085737
-68.012594 -139.379487 77.591149
-69.617540 -138.422537 77.749526
-71.611206 -138.475769 77.907474
-73.443347 -138.109239 78.065601
-75.209819 -137.572052 78.223799
-77.155471 -137.500509 78.381801
-78.808431 -136.668334 78.540125
-80.592729 -136.177472 78.698304
-82.311358 -135.515954 78.856555
-84.011989 -134.807666 79.014827
-85.616936 -133.850715 79.173204
-87.221882 -132.893765 79.331581
-89.185873 -132.869880 79.489562
-90.629635 -131.494055 79.648116
-92.348264 -130.832536 79.806368
-93.792027 -129.456711 79.964923
-95.235789 -128.080885 80.123477
-96.851559 -127.152063 80.281842
-98.398180 -126.043541 80.440284
-99.841943 -124.667715 80.598838
-101.285705 -123.291890 80.757393
-102.729468 -121.916064 80.915948
-103.475627 -120.228776 81.028380
-104.919389 -118.852950 81.186935
-106.363152 -117.477125 81.345490
-107.466050 -115.949112 81.481508
-108.553073 -114.414011 81.616477
-109.535415 -112.832173 81.744525
-110.045391 -111.039435 81.841342
-110.791551 -109.352147 81.953775
-111.652902 -107.716289 82.073823
-112.687585 -106.157820 82.205332
-113.722267 -104.599350 82.336840
-113.776187 -102.602995 82.403505
-114.805072 -101.041937 82.534630
-114.853194 -99.042993 82.600912
-115.887877 -97.484523 82.732420
-115.935999 -95.485579 82.798702
-116.111776 -93.543630 82.873424
-117.018804 -91.928166 82.996492
-117.066926 -89.929222 83.062774
-117.115048 -87.930278 83.129056
-117.163171 -85.931334 83.195338
-117.211293 -83.932390 83.261620
-117.259415 -81.933446 83.327902
-117.307538 -79.934502 83.394183
-116.804989 -78.147436 83.409762
-116.397296 -76.323873 83.434074
-116.445418 -74.324929 83.500356
-115.524642 -72.698781 83.477426
-115.535176 -70.714299 83.540247
-114.908309 -68.975066 83.544379
-114.624934 -67.103670 83.580138
-113.666569 -65.491984 83.553747
-112.916268 -63.800244 83.546514
-112.252255 -62.075303 83.547225
-111.797963 -60.269669 83.567247
-111.846085 -58.270725 83.633529
-112.798247 -56.675412 83.759582
-113.544406 -54.988124 83.872014
-114.988169 -53.612299 84.030569
-115.984815 -52.036847 84.159562
-117.178090 -50.549185 84.301556
-118.054180 -48.919907 84.422579
-119.368012 -47.486071 84.572543
-120.123544 -45.802968 84.685596
-121.158227 -44.244499 84.817104
-122.192909 -42.686029 84.948612
-123.050252 -41.048382 85.068396
-124.262274 -39.569090 85.211629
-124.542570 -37.673806 85.293261
-125.345079 -36.011676 85.409419
-126.379761 -34.453207 85.540928
-127.414444 -32.894737 85.672436
-127.527206 -30.924654 85.742991
-128.497248 -29.337324 85.870226
-129.019524 -27.550078 85.967857
-129.580053 -25.779910 86.068016
-129.814239 -23.864039 86.146600
-130.662858 -22.222497 86.265806
-131.306558 -20.489463 86.371465
-131.745663 -18.665083 86.463597
-131.793785 -16.666139 86.529879
-132.828468 -15.107670 86.661387
-132.876590 -13.108726 86.727669
-132.924712 -11.109782 86.793951
-132.993099 -9.119886 86.861572
-134.007517 -7.552368 86.991741
-134.055639 -5.553425 87.058023
-134.103762 -3.554481 87.124304
-134.151884 -1.555537 87.190586
-134.200006 0.443407 87.256868
-134.248129 2.442351 87.323150
-134.296251 4.441295 87.389432
-134.344373 6.440239 87.455714
-133.950942 8.269289 87.481339
-133.434131 10.050868 87.495605
-133.482254 12.049812 87.561887
-133.530376 14.048756 87.628168
-132.718275 15.716719 87.615245
-132.620134 17.659386 87.668059
-132.668256 19.658330 87.734341
-131.709892 21.270015 87.707950
-131.485608 23.164148 87.749150
-130.799650 24.880645 87.747841
-130.847772 26.879589 87.814123
-129.889408 28.491274 87.787732
-129.541248 30.337744 87.817526
-128.877234 32.062685 87.818238
-128.020801 33.713590 87.801232
-127.549207 35.512566 87.819661
-126.885194 37.237507 87.820372
-126.152194 38.935905 87.814732
-125.557167 40.687389 87.821796
-124.235466 42.159276 87.761950
-123.517446 43.863438 87.757689
-122.853433 45.588379 87.758401
-122.189419 47.313319 87.759112
-121.408495 48.993277 87.749059
-120.149699 50.489368 87.695006
-118.773992 51.940476 87.630188
-118.109978 53.665417 87.630900
-117.445965 55.390358 87.631611
-116.070257 56.841466 87.566793
-115.406244 58.566407 87.567505
-114.030537 60.017514 87.502687
-112.735092 61.499504 87.445259
-111.990816 63.193563 87.438580
-110.615109 64.644671 87.373762
-109.239402 66.095779 87.308944
-107.863695 67.546887 87.244127
-106.487987 68.997995 87.179309
-105.112280 70.449103 87.114491
-103.736573 71.900211 87.049673
-102.360866 73.351319 86.984855
-100.985159 74.802427 86.920037
-99.609452 76.253535 86.855219
-98.233745 77.704643 86.790401
-96.705815 78.811410 86.702642
-95.173447 79.908138 86.614214
-93.797740 81.359246 86.549396
-92.422032 82.810354 86.484578
-90.915287 83.965041 86.400012
-89.358448 85.006414 86.307896
-87.677144 85.766236 86.197023
-86.301437 87.217344 86.132205
-84.687931 88.130532 86.031549
-83.241139 89.420839 85.956018
-81.574254 90.213277 85.847318
-80.017415 91.254650 85.755202
-78.496251 92.376722 85.668463
-76.903737 93.337396 85.570971
-75.346898 94.378768 85.478855
-73.751362 95.332605 85.380907
-72.066771 96.084992 85.269539
-70.382181 96.837379 85.158170
-68.697590 97.589767 85.046801
-67.125877 98.597492 84.952444
-65.569038 99.638865 84.860328
-63.952702 100.545649 84.759246
-62.268111 101.298037 84.647877
-60.583520 102.050424 84.536509
-58.904855 102.816215 84.426033
-57.348017 103.857588 84.333917
-55.529749 104.307586 84.202403
-53.845158 105.059973 84.091034
-52.240673 105.993566 83.991738
-50.475977 106.564748 83.868297
-48.791386 107.317135 83.756928
-47.133329 108.129544 83.649558
-45.422205 108.821910 83.534191
-43.582824 109.224150 83.399494
-42.025985 110.265522 83.307378
-40.059549 110.380351 83.153534
-38.475481 111.360128 83.057314
-36.481814 111.413360 82.899366
-34.924976 112.454733 82.807250
-32.931310 112.507966 82.649302
-31.327713 113.443568 82.550140
-29.380805 113.602571 82.399238
-27.649648 114.249622 82.280852
-25.830300 114.697176 82.149174
-23.971583 115.055676 82.011563
-22.279795 115.791782 81.899110
-20.286129 115.845014 81.741162
-18.608927 116.614117 81.630907
-16.735624 116.939620 81.491098
-14.741958 116.992852 81.333149
-12.937389 117.473838 81.203699
-11.191453 118.087458 81.083085
-9.197787 118.140690 80.925137
-7.204121 118.193923 80.767189
-5.581259 119.085946 80.665123
-3.653616 119.288528 80.517125
-1.659950 119.341761 80.359177
0.333716 119.394994 80.201228
2.327382 119.448226 80.043280
4.077228 120.053001 79.922077
5.877887 120.542832 79.793216
7.871553 120.596064 79.635268
9.865219 120.649297 79.477319
11.858885 120.702529 79.319371
13.852551 120.755762 79.161423
15.846217 120.808995 79.003474
17.839884 120.862227 78.845526
19.833550 120.915460 78.687578
21.827216 120.968692 78.529629
23.820882 121.021925 78.371681
25.814548 121.075158 78.213733
27.808214 121.128390 78.055784
29.801880 121.181623 77.897836
31.795546 121.234855 77.739888
33.408669 120.299154 77.581520
35.394158 120.331138 77.423563
37.387824 120.384370 77.265614
39.381490 120.437603 77.107666
41.375156 120.490836 76.949718
43.101279 119.848791 76.791474
44.973769 119.587118 76.633392
46.967435 119.640350 76.475444
48.961101 119.693583 76.317496
50.566047 118.736633 76.159119
52.559713 118.789865 76.001170
54.553379 118.843098 75.843222
56.231146 118.075391 75.684925
58.151992 117.939380 75.526897
60.145658 117.992613 75.368949
61.750604 117.035662 75.210572
63.744270 117.088895 75.052623
65.374024 116.196413 74.894274
67.342882 116.185177 74.736298
69.086148 115.587683 74.578074
70.941494 115.281460 74.419973
72.798272 114.978954 74.261873
74.540107 114.377742 74.103647
76.507503 114.490400 73.949658
78.090612 115.472347 73.853583
79.567801 116.693895 73.773472
81.204289 117.555093 73.669352
82.761128 118.596465 73.577236
84.317967 119.637838 73.485121
86.311633 119.691071 73.327172
88.299637 119.757111 73.170077
89.862138 120.785676 73.077108
91.855804 120.838909 72.919160
93.849470 120.892141 72.761212
95.843136 120.945374 72.603264
97.836802 120.998607 72.445315
99.663392 120.617652 72.287183
101.435415 120.094889 72.128990
103.429081 120.148122 71.971042
105.094145 119.347404 71.812731
107.027693 119.244404 71.654716
108.632639 118.287453 71.496339
110.524898 118.077155 71.338279
112.231251 117.383736 71.180014
113.836198 116.426785 71.021637
115.441144 115.469835 70.863260
117.124547 114.716775 70.704970
118.843176 114.055256 70.546718
120.286939 112.679430 70.388164
122.005567 112.017912 70.229912
123.449330 110.642086 70.071357
124.893092 109.266261 69.912803
126.336855 107.890435 69.754248
127.483855 106.973699 69.633790
128.801643 105.541629 69.483564
130.245405 104.165803 69.325009
131.689167 102.789977 69.166454
132.609145 101.180295 69.042530
133.643827 99.621825 68.911021
134.625248 98.039576 68.783035
135.371407 96.352288 68.670602
136.117566 94.665000 68.558169
136.795997 92.947473 68.450215
137.609885 91.290424 68.333304
137.878802 89.390059 68.252424
138.913484 87.831590 68.120916
138.961607 85.832646 68.054634
139.009729 83.833702 67.988352
139.247870 81.919597 67.909507
140.691633 80.543771 67.750953
142.135395 79.167945 67.592398
143.579158 77.792120 67.433843
145.022920 76.416294 67.275289
146.466682 75.040468 67.116734
147.910445 73.664643 66.958179
149.354207 72.288817 66.799625
150.797970 70.912991 66.641070
152.241732 69.537166 66.482515
152.987891 67.849878 66.370083
154.431654 66.474052 66.211528
155.420281 64.895020 66.083065
156.621575 63.410938 65.940541
157.489645 61.778081 65.820048
158.524328 60.219611 65.688540
159.557656 58.660537 65.557121
161.001418 57.284711 65.398566
161.747577 55.597423 65.286134
162.663058 53.985733 65.162506
163.697740 52.427263 65.030998
164.683658 50.847021 64.902714
165.429817 49.159733 64.790281
166.801787 47.751854 64.636473
166.922135 45.785157 64.565416
167.884592 44.194441 64.438683
168.919274 42.635971 64.307174
169.160613 40.723293 64.228118
170.002079 39.078558 64.109384
171.036762 37.520088 63.977876
171.399090 35.661429 63.890820
172.119566 33.962675 63.780086
172.193805 31.975391 63.712077
173.202371 30.405261 63.582296
173.686123 28.600815 63.487212
174.285176 26.847848 63.384505
174.333298 24.848904 63.318224
175.226997 23.227489 63.196036
175.416103 21.291490 63.120433
175.464225 19.292546 63.054151
175.512348 17.293602 62.987870
176.547030 15.735133 62.856361
176.595153 13.736189 62.790079
176.643275 11.737245 62.723798
176.691397 9.738301 62.657516
176.739520 7.739357 62.591234
176.787642 5.740413 62.524952
176.835764 3.741469 62.458670
176.883887 1.742526 62.392388
176.653633 -0.149310 62.351738
175.973645 -1.868104 62.352497
176.021767 -3.867048 62.286215
176.069889 -5.865992 62.219934
175.420966 -7.596739 62.217833
175.159647 -9.476621 62.180043
175.207769 -11.475565 62.113761
174.249405 -13.087251 62.140152
174.188300 -15.044168 62.083927
173.339163 -16.697880 62.100261
173.387285 -18.696824 62.033979
172.428921 -20.308510 62.060370
172.243939 -22.217764 62.015551
171.518679 -23.919140 62.020479
170.915912 -25.667646 62.014128
170.251899 -27.392587 62.013416
169.587885 -29.117528 62.012705
168.691708 -30.753141 62.033370
168.259858 -32.567409 62.011282
166.884151 -34.018517 62.076100
166.220138 -35.743458 62.075388
165.556124 -37.468399 62.074676
164.892111 -39.193340 62.073965
163.516403 -40.644448 62.138783
162.852390 -42.369389 62.138071
161.476683 -43.820497 62.202889
160.812669 -45.545437 62.202178
159.436962 -46.996545 62.266996
158.149699 -48.481683 62.323670
157.397242 -50.172594 62.331102
156.733228 -51.897535 62.330390
155.357521 -53.348643 62.395208
153.981814 -54.799751 62.460026
152.606107 -56.250859 62.524844
151.393025 -57.764539 62.574689
150.566386 -59.426907 62.588951
149.190679 -60.878015 62.653769
147.814972 -62.329123 62.718587
146.439264 -63.780231 62.783405
145.063557 -65.231339 62.848223
143.687850 -66.682447 62.913041
142.156178 -67.780748 63.001364
140.627552 -68.885942 63.089227
139.251845 -70.337050 63.154045
137.876138 -71.788158 63.218863
136.500431 -73.239266 63.283681
134.815840 -73.991653 63.395050
133.440133 -75.442761 63.459868
132.064426 -76.893869 63.524686
130.379835 -77.646257 63.636055
129.004128 -79.097365 63.700873
127.461444 -80.170756 63.790855
125.943830 -81.300860 63.877059
124.347766 -82.253502 63.975086
122.790927 -83.294874 64.067202
121.198942 -84.256742 64.164615
119.677250 -85.377620 64.251433
118.120411 -86.418992 64.343549
116.454053 -87.212625 64.452170
114.769463 -87.965012 64.563539
113.084872 -88.717400 64.674907
111.709165 -90.168508 64.739725
110.024574 -90.920895 64.851094
108.342551 -91.679089 64.962076
106.655393 -92.425670 65.073831
104.970802 -93.178057 65.185200
103.286212 -93.930444 65.296569
101.678368 -94.856440 65.396371
100.121529 -95.897812 65.488487
98.541323 -96.886327 65.584124
96.571024 -96.992418 65.738551
95.014185 -98.033790 65.830666
93.178668 -98.444768 65.964781
91.494077 -99.197156 66.076149
89.906842 -100.169769 66.172846
88.124896 -100.701930 66.298887
86.356337 -101.264374 66.422910
84.446831 -101.507984 66.568175
82.805832 -102.358979 66.672974
81.077650 -103.012759 66.790912
79.255327 -103.453585 66.923038
77.698488 -104.494957 67.015154
75.704822 -104.548190 67.173102
74.030404 -105.323588 67.282938
72.154317 -105.642795 67.423166
70.352339 -106.129642 67.552226
68.603812 -106.737401 67.673230
66.674274 -106.935696 67.821514
65.053307 -107.832006 67.923294
63.059641 -107.885239 68.081242
61.311619 -108.494138 68.202171
59.509136 -108.979844 68.331306
57.515470 -109.033077 68.489255
55.640080 -109.353858 68.629378
53.964966 -110.127682 68.739319
51.971299 -110.180914 68.897267
49.977633 -110.234147 69.055215
48.283950 -110.965967 69.167954
46.427129 -111.328752 69.305279
44.433462 -111.381985 69.463228
42.439796 -111.435218 69.621176
40.446130 -111.488450 69.779124
38.625463 -111.933021 69.911000
36.895625 -112.583056 70.029188
34.901959 -112.636288 70.187136
32.908293 -112.689521 70.345085
30.914627 -112.742753 70.503033
28.920961 -112.795986 70.660981
26.927295 -112.849219 70.818930
24.933629 -112.902451 70.976878
22.939963 -112.955684 71.134826
20.946297 -113.008917 71.292775
18.952631 -113.062149 71.450723
16.958965 -113.115382 71.608671
14.965299 -113.168614 71.766620
12.971633 -113.221847 71.924568
10.977967 -113.275080 72.082516
9.301822 -112.503156 72.240815
7.379354 -112.371362 72.398842
5.385688 -112.424594 72.556790
3.392022 -112.477827 72.714738
1.398356 -112.531060 72.872687
-0.390788 -112.052792 73.030860
-2.200256 -111.627342 73.189012
-4.193922 -111.680575 73.346960
-6.187588 -111.733807 73.504908
-7.815036 -110.835333 73.663261
-9.786201 -110.830089 73.821234
-11.779867 -110.883322 73.979182
-13.773533 -110.936555 74.137130
-15.173951 -112.331765 74.205672
-15.837964 -114.056706 74.204961
-17.213671 -115.507814 74.269779
-18.589378 -116.958922 74.334597
-19.653488 -118.529920 74.370724
-20.629099 -120.134970 74.398703
-22.004806 -121.586078 74.463521
-23.380513 -123.037186 74.528339
-24.870273 -124.230297 74.610346
-26.440811 -125.240681 74.704526
-27.104825 -126.965622 74.703814
-28.789415 -127.718010 74.815183
-30.165122 -129.169118 74.880001
-31.849713 -129.921505 74.991369
-33.225420 -131.372613 75.056187
-35.184395 -131.504319 75.208908
-36.741234 -132.545692 75.301023
-38.298073 -133.587065 75.393139
-39.963783 -134.382162 75.501662
-41.648373 -135.134550 75.613031
-43.405417 -135.723043 75.735319
-45.326438 -135.940604 75.882319
-46.955922 -136.817648 75.985383
-48.695620 -137.445378 76.105056
-50.506427 -137.912253 76.235447
-52.500093 -137.965486 76.393395
-54.058275 -139.003820 76.485713
-56.050598 -139.060091 76.643459
-58.044264 -139.113324 76.801407
-60.037930 -139.166557 76.959356
-62.031596 -139.219789 77.117304
-64.025262 -139.273022 77.275252
-66.018928 -139.326254 77.433200
8.788995 -63.736420 110.733814
7.176326 -62.793124 110.956718
5.181271 -62.862408 111.173678
3.186217 -62.931693 111.390638
1.191162 -63.000977 111.607598
-0.421507 -62.057681 111.830503
-2.416561 -62.126965 112.047463
-4.350059 -62.033244 112.265380
-6.024285 -61.252953 112.487327
-8.019339 -61.322237 112.704287
-9.632008 -60.378941 112.927192
-11.627063 -60.448226 113.144152
-13.239732 -59.504929 113.367056
-15.234786 -59.574214 113.584016
-16.948338 -58.898062 113.805352
-18.670839 -58.245607 114.026550
-20.393340 -57.593152 114.247747
-22.067848 -56.813610 114.469690
-24.062902 -56.882894 114.686650
-25.675571 -55.939598 114.909555
-27.288240 -54.996302 115.132459
-29.005843 -54.330876 115.353732
-30.728343 -53.678421 115.574930
-32.180456 -52.309963 115.800330
-33.902957 -51.657508 116.021527
-35.355070 -50.289050 116.246928
-37.346640 -50.349106 116.463942
-38.800072 -48.984140 116.689322
-40.522572 -48.331685 116.910519
-41.974685 -46.963227 117.135920
-43.426799 -45.594770 117.361321
-45.027599 -44.620045 117.584410
-46.601412 -43.573857 117.807918
-48.053526 -42.205400 118.033319
-49.505639 -40.836942 118.258720
-50.957752 -39.468484 118.484120
-52.409865 -38.100027 118.709521
-53.664693 -36.641515 118.917424
-54.620087 -35.046322 119.098771
-55.744722 -33.528381 119.295127
-56.830310 -31.992617 119.488021
-57.824750 -30.415247 119.672830
-58.864764 -28.858680 119.861682
-59.798640 -27.253665 120.041120
-60.556749 -25.568417 120.204969
-61.314858 -23.883170 120.368818
-62.072967 -22.197922 120.532667
-63.083364 -20.627836 120.718892
-63.589185 -18.827428 120.860366
-64.181922 -17.066694 121.009548
-65.105402 -15.456933 121.188064
-65.280480 -13.505551 121.300205
-65.339024 -11.500976 121.402009
-66.379038 -9.944409 121.590861
-66.437582 -7.939833 121.692665
-66.496125 -5.935258 121.794470
-66.554669 -3.930682 121.896275
-66.613213 -1.926107 121.998079
-66.671756 0.078469 122.099884
-66.381881 1.951731 122.156978
-65.783221 3.708619 122.174446
-65.841764 5.713194 122.276251
-65.118253 7.423028 122.277697
-64.953228 9.343345 122.350813
-64.512862 11.159890 122.388594
-63.854625 12.894324 122.398417
-63.117613 14.599070 122.398132
-62.170534 16.224644 122.370889
-61.223454 17.850219 122.343646
-60.510595 19.564067 122.346460
-59.852358 21.298502 122.356283
-59.194121 23.032936 122.366106
-57.824801 24.499376 122.284679
-57.166564 26.233810 122.294503
-55.797244 27.700250 122.213076
-54.593897 29.229243 122.152947
-53.769687 30.901125 122.141472
-52.400368 32.367565 122.060045
-51.031048 33.834005 121.978618
-49.661728 35.300446 121.897190
-48.292408 36.766886 121.815763
-46.611469 37.537536 121.666840
-45.242149 39.003976 121.585413
-43.872829 40.470416 121.503986
-42.270053 41.415589 121.371993
-40.822571 42.707506 121.273636
-39.161335 43.522150 121.128980
-37.460693 44.248806 120.975790
-36.052618 45.628712 120.885968
-34.410434 46.485896 120.745439
-32.943900 47.735273 120.642956
-31.360176 48.722986 120.515089
-29.679237 49.493636 120.366166
-27.998298 50.264285 120.217243
-26.285769 50.964399 120.061477
-24.324802 51.109794 119.851901
-22.736355 52.086963 119.723011
-21.181996 53.140244 119.601505
-19.593604 54.117534 119.472627
-17.632583 54.262809 119.263039
-15.920108 54.963043 119.107285
-14.083170 55.385374 118.924573
-12.246611 55.808552 118.741943
-10.533756 56.507938 118.586107
-8.573115 56.654061 118.376601
-6.984343 57.630503 118.247641
-4.989288 57.699787 118.030681
-3.218680 58.270220 117.862335
-1.439875 58.822352 117.692215
0.555179 58.891636 117.475255
2.550234 58.960921 117.258295
4.439932 59.265448 117.064155
6.099647 60.083485 116.919829
8.094702 60.152770 116.702869
10.089756 60.222054 116.485909
12.084811 60.291338 116.268949
14.079865 60.360622 116.051989
16.074920 60.429907 115.835029
18.069974 60.499191 115.618069
20.065029 60.568475 115.401109
22.060083 60.637759 115.184149
23.783667 59.988173 114.962969
25.667807 59.763747 114.744284
27.662861 59.833032 114.527324
29.657916 59.902316 114.310364
31.484832 59.526359 114.090791
33.265639 59.028304 113.870500
35.260694 59.097588 113.653540
36.922721 58.284996 113.431403
38.868417 58.223576 113.213675
40.638110 57.696088 112.993212
42.476141 57.349564 112.773811
44.353498 57.107180 112.555021
46.083864 56.475553 112.333946
47.798500 55.802270 112.112627
49.691588 55.601541 111.894082
51.304257 54.658245 111.671177
53.236389 54.560906 111.453239
54.911980 53.784233 111.231313
56.681390 53.255996 111.010845
58.403891 52.603541 110.789648
60.126391 51.951086 110.568450
61.745042 51.023629 110.345639
63.357711 50.080333 110.122734
65.023506 49.277718 109.900656
66.583049 48.193741 109.676925
68.198120 47.256805 109.454058
69.650233 45.888348 109.228657
71.372734 45.235892 109.007460
73.033725 44.420556 108.785307
74.547347 43.214980 108.560862
75.999461 41.846522 108.335462
77.721961 41.194067 108.114264
79.174074 39.825609 107.888864
80.626188 38.457152 107.663463
82.078301 37.088694 107.438063
83.530414 35.720237 107.212662
84.500556 34.131775 107.030007
85.740636 32.666532 106.823412
87.192749 31.298074 106.598011
87.950858 29.612827 106.434162
89.402972 28.244369 106.208762
90.161080 26.559122 106.044912
90.919189 24.873874 105.881063
91.780655 23.235806 105.708047
92.820669 21.679239 105.519196
93.860684 20.122672 105.330344
94.645629 18.449675 105.164115
95.403738 16.764427 105.000265
95.999256 15.004963 104.850836
96.225951 13.077143 104.734118
97.097813 11.443820 104.560180
97.156357 9.439245 104.458376
97.806273 7.704611 104.304122
98.254915 5.878102 104.167719
98.313459 3.873527 104.065915
98.372002 1.868951 103.964110
98.430546 -0.135624 103.862305
98.489090 -2.140200 103.760501
98.547634 -4.144775 103.658696
97.600554 -5.770350 103.685939
97.659098 -7.774926 103.584134
97.649518 -9.753827 103.491072
96.770562 -11.405076 103.509572
96.333044 -13.222695 103.471425
95.882026 -15.035226 103.435010
95.016571 -16.691564 103.451779
94.358334 -18.425998 103.441955
93.700097 -20.160432 103.432132
93.041860 -21.894866 103.422309
92.152252 -23.542101 103.442177
91.205172 -25.167676 103.469419
90.356066 -26.830175 103.484090
89.311013 -28.418825 103.523905
88.328510 -30.031049 103.555693
87.416854 -31.669975 103.578390
86.300953 -33.231924 103.627297
84.931633 -34.698364 103.708724
83.562313 -36.164804 103.790151
82.192993 -37.631245 103.871579
80.823673 -39.097685 103.953006
79.336567 -40.301128 104.059945
77.773414 -41.334775 104.183356
76.404095 -42.801215 104.264783
74.723156 -43.571865 104.413706
73.119131 -44.514250 104.545970
71.672897 -45.808955 104.644056
70.303577 -47.275395 104.725483
68.622638 -48.046045 104.874406
67.253319 -49.512485 104.955834
65.572380 -50.283135 105.104757
63.891441 -51.053785 105.253680
62.238619 -51.887214 105.396513
60.684260 -52.940495 105.518019
59.129901 -53.993776 105.639525
57.167686 -54.136384 105.849372
55.580488 -55.116340 105.977991
53.805808 -55.677683 106.147218
52.031075 -56.238905 106.316457
50.443931 -57.218983 106.445065
48.481661 -57.361470 106.654923
46.927302 -58.414750 106.776430
44.932248 -58.484035 106.993390
43.377889 -59.537315 107.114896
41.382834 -59.606599 107.331856
39.735060 -60.451300 107.473595
37.833421 -60.729164 107.670322
35.838367 -60.798448 107.887282
34.284008 -61.851729 108.008788
32.288953 -61.921013 108.225748
30.293899 -61.990298 108.442708
28.298844 -62.059582 108.659668
26.722014 -63.062687 108.786041
24.749431 -63.182147 108.998134
22.754376 -63.251431 109.215094
20.759322 -63.320715 109.432054
18.764267 -63.389999 109.649014
16.769213 -63.459283 109.865974
14.774158 -63.528568 110.082934
12.779104 -63.597852 110.299894
10.784049 -63.667136 110.516854
6.955837 -28.450366 115.721884
5.345839 -27.517614 115.984473
3.357375 -27.598778 116.229505
1.529809 -27.248892 116.482001
-0.241087 -26.747190 116.737126
-1.909131 -25.969943 116.997022
-3.839550 -25.895602 117.244747
-5.449547 -24.962849 117.507336
-7.067542 -24.051521 117.769553
-8.787012 -23.412047 118.027064
-10.279540 -22.164591 118.295102
-11.958337 -21.416151 118.554499
-13.410191 -20.059729 118.824424
-14.862044 -18.703307 119.094349
-16.243676 -17.314333 119.357530
-17.073990 -15.669783 119.567757
-18.310890 -14.806604 119.778919
-19.353957 -13.260681 120.009581
-20.313642 -11.676104 120.232234
-20.461792 -9.715323 120.376942
-21.142062 -8.001218 120.572759
-21.569626 -6.169966 120.744304
-21.634393 -4.170531 120.881003
-21.699161 -2.171097 121.017702
-21.411330 -0.302364 121.101624
-20.823636 1.455216 121.140661
-20.112179 3.166920 121.161173
-19.462603 4.901562 121.190947
-18.813028 6.636203 121.220721
-17.452768 8.107409 121.144118
-16.660342 9.525963 121.135593
-15.129637 10.620020 121.013291
-13.769378 12.091226 120.936689
-12.409118 13.562431 120.860086
-10.735563 14.340400 120.699484
-9.375304 15.811606 120.622881
-7.701748 16.589575 120.462280
-6.028193 17.367544 120.301679
-4.297167 18.018349 120.125669
-2.681082 18.923483 119.980476
-0.763306 19.161061 119.754396
0.782091 20.222610 119.628156
2.770555 20.303774 119.383124
4.639732 20.648888 119.170074
6.304417 21.446487 119.011851
8.292881 21.527651 118.766819
10.281346 21.608815 118.521787
12.269810 21.689980 118.276754
14.258274 21.771144 118.031722
16.246739 21.852308 117.786690
17.966898 21.214680 117.529212
19.845201 21.000720 117.279069
21.833665 21.081884 117.034037
23.443663 20.149132 116.771448
25.380012 20.090678 116.523998
27.042125 19.297544 116.263827
28.818953 18.811730 116.008977
30.538423 18.172256 115.751467
32.250585 17.513203 115.493617
33.709747 16.176360 115.224031
35.429217 15.536886 114.966521
36.881071 14.180464 114.696596
38.332925 12.824042 114.426671
39.922107 11.835523 114.163117
40.812487 10.507465 113.965677
42.264341 9.151044 113.695752
43.024432 7.473941 113.492269
43.784523 5.796839 113.288786
44.626216 4.157564 113.077465
45.304705 2.442633 112.881820
