ply
format ascii 1.0
element vertex 1515
property float x
property float y
property float z
end_header
-111.175301 13.524868 6.374707
-111.145841 15.529533 6.376007
-111.116382 17.534198 6.377307
-110.826864 19.426362 6.359453
-110.066304 21.114752 6.306908
-110.036844 23.119417 6.308208
-110.007384 25.124082 6.309507
-108.986766 26.699970 6.237809
-108.957307 28.704636 6.239109
-107.936688 30.280524 6.167411
-107.907229 32.285189 6.168710
-107.059540 33.935887 6.109748
-106.325803 35.635881 6.059178
-105.592067 37.335875 6.008609
-104.815915 39.017520 5.954915
-104.124595 40.735863 5.907470
-103.390859 42.435857 5.856900
-101.956268 43.832660 5.754713
-101.222532 45.532654 5.704144
-100.488796 47.232648 5.653574
-99.683365 48.901627 5.597724
-98.320469 50.329445 5.500817
-97.586733 52.029439 5.450248
-96.152142 53.426243 5.348061
-95.418406 55.126237 5.297491
-93.983815 56.523040 5.195305
-92.549224 57.919843 5.093118
-91.547880 59.504069 5.022839
-90.322069 60.868092 4.935817
-88.664611 61.702134 4.816414
-87.230020 63.098937 4.714227
-85.795429 64.495741 4.612041
-84.360838 65.892544 4.509854
-82.926247 67.289347 4.407667
-81.491656 68.686150 4.305480
-80.057066 70.082953 4.203293
-78.622475 71.479756 4.101106
-77.187884 72.876559 3.998920
-75.507406 73.652474 3.877739
-74.037006 74.958857 3.772786
-72.320719 75.644351 3.648839
-70.886129 77.041154 3.546652
-69.103487 77.559096 3.417579
-67.453555 78.412142 3.298758
-65.901527 79.512406 3.187499
-64.300547 80.489062 3.072459
-62.586390 81.179934 2.948677
-60.870104 81.865428 2.824729
-59.153817 82.550923 2.700782
-57.498250 83.389741 2.581526
-55.897270 84.366396 2.466486
-54.286652 85.318714 2.350701
-52.570366 86.004208 2.226754
-50.854079 86.689703 2.102807
-49.094973 87.267075 1.975552
-47.421505 88.060691 1.854913
-45.705218 88.746185 1.730966
-43.893655 89.191099 1.599659
-42.272645 90.117174 1.483072
-40.293317 90.138467 1.338805
-38.692338 91.115122 1.223765
-36.692980 91.085835 1.077952
-35.092000 92.062490 0.962912
-33.127819 92.122027 0.819816
-31.491662 93.009858 0.702058
-29.492304 92.980571 0.556245
-27.697262 93.467201 0.426214
-25.891966 93.927939 0.295391
-23.982992 94.126881 0.156560
-22.291628 94.875307 0.034538
-20.292270 94.846020 -0.111276
-18.292912 94.816733 -0.257089
-16.691933 95.793388 -0.372129
-14.692574 95.764101 -0.517943
-12.693216 95.734814 -0.663757
-10.693858 95.705527 -0.809570
-8.694500 95.676239 -0.955384
-7.093521 96.652895 -1.070424
-5.094162 96.623607 -1.216237
-3.094804 96.594320 -1.362051
-1.095446 96.565033 -1.507865
0.903912 96.535746 -1.653678
2.903270 96.506459 -1.799492
4.902628 96.477171 -1.945305
6.901986 96.447884 -2.091119
8.901344 96.418597 -2.236933
10.900702 96.389310 -2.382746
12.900060 96.360022 -2.528560
14.846225 96.207151 -2.670708
16.471010 95.307607 -2.790710
18.470368 95.278320 -2.936523
20.469726 95.249032 -3.082337
22.469084 95.219745 -3.228151
24.468442 95.190458 -3.373964
26.040034 94.167330 -3.490301
28.039392 94.138042 -3.636114
30.038750 94.108755 -3.781928
31.617252 93.101681 -3.898740
33.609700 93.056340 -4.044078
35.609058 93.027052 -4.189891
37.180649 92.003924 -4.306228
39.180007 91.974637 -4.452041
40.751599 90.951509 -4.568378
42.750957 90.922221 -4.714191
44.392515 90.061647 -4.835349
46.321907 89.869806 -4.976341
47.893499 88.846678 -5.092678
49.788877 89.079950 -5.230459
50.550794 90.767752 -5.283104
50.580254 92.772417 -5.281805
49.606383 94.377522 -5.208044
49.238386 96.223906 -5.178040
48.661971 97.987291 -5.132984
47.871454 99.665413 -5.072466
47.717559 101.597061 -5.057924
47.747019 103.601726 -5.056625
47.776479 105.606391 -5.055325
47.805939 107.611056 -5.054025
47.835398 109.615721 -5.052726
48.856016 111.191610 -5.124424
48.885476 113.196275 -5.123124
49.872585 114.786660 -5.192355
50.606321 116.486654 -5.242924
51.947330 117.923940 -5.338219
52.774648 119.583451 -5.395681
54.209239 120.980254 -5.497867
55.643830 122.377057 -5.600054
57.078421 123.773860 -5.702241
58.702496 124.692198 -5.819065
60.303476 125.668854 -5.934105
61.945585 126.541652 -6.052322
63.903813 126.616222 -6.194959
65.504793 127.592877 -6.309999
67.376142 127.886826 -6.445924
69.105131 128.540245 -6.570852
71.104489 128.510958 -6.716666
72.806698 129.231999 -6.839525
74.704827 129.458326 -6.977519
76.704185 129.429039 -7.123333
78.703543 129.399752 -7.269146
80.702901 129.370465 -7.414960
82.274493 128.347336 -7.531296
84.273851 128.318049 -7.677110
86.273209 128.288762 -7.822924
87.889787 127.370153 -7.942360
89.844159 127.236346 -8.085074
91.583074 126.601965 -8.212940
93.415108 126.183931 -8.347224
94.986700 125.160803 -8.463560
96.669288 124.395555 -8.587545
98.557650 124.108387 -8.725710
100.129242 123.085259 -8.842046
101.755503 122.189146 -8.962150
103.450908 121.453676 -9.087018
105.146313 120.718206 -9.211886
106.841718 119.982736 -9.336755
108.234646 118.544515 -9.440780
109.627574 117.106293 -9.544804
111.322979 116.370823 -9.669673
112.715908 114.932602 -9.773697
114.108836 113.494380 -9.877722
115.501765 112.056159 -9.981747
116.682139 111.115586 -10.069419
117.880636 109.599935 -10.159402
119.273564 108.161714 -10.263427
120.607084 106.699834 -10.363161
121.349959 105.002738 -10.420239
122.742887 103.564517 -10.524264
123.528699 101.884521 -10.584442
124.502570 100.279416 -10.658203
125.476442 98.674312 -10.731963
126.186214 96.964034 -10.786650
126.869680 95.243281 -10.839438
127.394725 93.459438 -10.880784
128.236612 91.801773 -10.945012
128.339136 89.849669 -10.955844
129.313008 88.244564 -11.029604
129.283548 86.239899 -11.030904
129.254088 84.235234 -11.032203
129.224628 82.230569 -11.033503
129.195169 80.225904 -11.034802
128.861589 78.352801 -11.013704
128.145091 76.645350 -10.964404
128.094972 74.649622 -10.964182
127.095013 73.064796 -10.894005
125.926645 71.552825 -10.811425
125.053777 69.913019 -10.750609
123.758318 68.456028 -10.658669
122.323727 67.059225 -10.556482
120.889136 65.662422 -10.454295
119.454545 64.265619 -10.352109
117.738258 63.580124 -10.228161
116.041330 62.845749 -10.105710
114.440350 61.869094 -9.990670
112.589398 61.523641 -9.856320
110.840012 60.921726 -9.729816
109.156824 60.152653 -9.608426
107.239674 59.974357 -9.468963
105.240316 60.003645 -9.323149
103.639336 59.026989 -9.208109
101.639978 59.056277 -9.062296
99.640620 59.085564 -8.916482
98.014015 58.173614 -8.799463
97.920801 56.196529 -8.796067
99.252655 54.733986 -8.895681
100.645584 53.295764 -8.999705
101.845746 51.780777 -9.089809
102.721978 50.136789 -9.156517
103.793489 48.570568 -9.237329
104.798373 46.977814 -9.313329
105.741232 45.360360 -9.384850
106.715103 43.755255 -9.458610
107.558234 42.098085 -9.522929
108.241700 40.377331 -9.575716
109.634628 38.939110 -9.679741
110.318094 37.218356 -9.732528
110.581129 35.330173 -9.754952
111.555001 33.725068 -9.828712
112.368493 32.056095 -9.890890
113.051959 30.335341 -9.943677
113.473284 28.510194 -9.977532
113.709429 26.611302 -9.998014
114.417696 24.900425 -10.052592
114.388236 22.895760 -10.053892
115.362107 21.290655 -10.127652
115.332647 19.285990 -10.128952
115.303188 17.281325 -10.130251
116.277059 15.676221 -10.204012
116.247599 13.671555 -10.205311
116.218140 11.666890 -10.206611
116.188680 9.662225 -10.207911
116.159220 7.657560 -10.209210
116.129760 5.652895 -10.210510
116.100301 3.648230 -10.211809
115.934034 1.702747 -10.203033
115.050223 0.067676 -10.141411
115.020763 -1.936989 -10.142710
114.991303 -3.941654 -10.144010
113.970685 -5.517543 -10.072312
113.941225 -7.522208 -10.073612
112.933327 -9.103599 -10.002850
112.891148 -11.102762 -10.003213
111.870530 -12.678650 -9.931515
111.432973 -14.506772 -9.902759
110.699237 -16.206766 -9.852189
109.799834 -17.835092 -9.789418
109.231765 -19.606754 -9.751050
108.498029 -21.306748 -9.700480
107.729138 -22.991534 -9.647321
106.329702 -24.403545 -9.547724
105.595966 -26.103539 -9.497154
104.667284 -27.719199 -9.432227
103.427639 -29.200336 -9.344398
102.626048 -30.870976 -9.288831
101.259312 -32.297133 -9.191641
100.525576 -33.997128 -9.141072
99.090985 -35.393931 -9.038885
97.656394 -36.790734 -8.936698
96.221803 -38.187537 -8.834511
94.787212 -39.584340 -8.732324
93.352621 -40.981143 -8.630137
91.918031 -42.377946 -8.527951
90.483440 -43.774749 -8.425764
89.048849 -45.171552 -8.323577
88.315113 -46.871547 -8.273007
86.880522 -48.268350 -8.170821
85.164235 -48.953844 -8.046873
83.729644 -50.350647 -7.944687
82.265094 -51.671799 -7.840185
80.578767 -52.432944 -7.718553
79.063134 -53.625109 -7.610106
77.427889 -54.515242 -7.492419
75.861174 -55.578420 -7.380026
74.260195 -56.555076 -7.264986
72.560725 -57.283033 -7.142338
71.058235 -58.508386 -7.034906
69.409847 -59.365331 -6.916204
67.693560 -60.050825 -6.792257
66.255296 -61.438353 -6.689786
64.542682 -62.133122 -6.566123
62.826396 -62.818617 -6.442176
61.110109 -63.504111 -6.318229
59.452998 -64.339031 -6.198853
57.677535 -64.875099 -6.070334
55.961248 -65.560594 -5.946387
54.251681 -66.263055 -5.822959
52.528675 -66.931582 -5.698493
50.812388 -67.617076 -5.574546
49.050363 -68.187079 -5.447066
47.379814 -68.988065 -5.326652
45.450025 -69.134447 -5.186212
43.849046 -70.111102 -5.071172
41.949258 -70.333239 -4.933050
40.248708 -71.058470 -4.810319
38.249350 -71.029183 -4.664505
36.648370 -72.005838 -4.549465
34.649012 -71.976551 -4.403652
33.048032 -72.953207 -4.288612
31.048674 -72.923919 -4.142798
29.090162 -72.997772 -4.000140
27.448336 -73.871287 -3.881945
25.448978 -73.842000 -3.736131
23.449620 -73.812713 -3.590317
21.848640 -74.789368 -3.475277
19.849282 -74.760081 -3.329464
17.849924 -74.730794 -3.183650
15.850566 -74.701507 -3.037837
13.851208 -74.672219 -2.892023
12.235101 -75.610676 -2.775815
10.250870 -75.619588 -2.631170
8.251512 -75.590300 -2.485356
6.252154 -75.561013 -2.339542
4.252796 -75.531726 -2.193729
2.253438 -75.502439 -2.047915
0.254080 -75.473151 -1.902102
-1.745278 -75.443864 -1.756288
-3.744636 -75.414577 -1.610474
-5.743994 -75.385290 -1.464661
-7.743352 -75.356002 -1.318847
18.122809 -161.268440 38.394036
16.539591 -160.274482 38.563289
14.546556 -160.281977 38.759296
12.553521 -160.289471 38.955302
10.560486 -160.296966 39.151309
8.567450 -160.304460 39.347315
6.574415 -160.311955 39.543322
4.756536 -159.891428 39.727894
2.998162 -159.325492 39.908582
1.005127 -159.332986 40.104588
-0.640683 -158.491984 40.277928
-2.571125 -158.346523 40.469848
-4.564161 -158.354018 40.665855
-6.327688 -157.800674 40.846879
-8.140413 -157.367554 41.031115
-9.732644 -156.395622 41.200957
-11.716666 -156.381091 41.396375
-13.299883 -155.387134 41.565628
-14.883101 -154.393176 41.734881
-16.832342 -154.293653 41.928029
-18.459353 -153.406713 42.100141
-20.452388 -153.414207 42.296148
-22.035606 -152.420250 42.465401
-23.642254 -151.483550 42.636184
-25.202040 -150.432334 42.803908
-26.785258 -149.438377 42.973161
-28.459904 -148.667839 43.148383
-29.951693 -147.450461 43.311668
-31.575075 -146.554653 43.483543
-33.118127 -145.462546 43.650174
-34.701345 -144.468588 43.819428
-36.694380 -144.476083 44.015434
-38.384988 -143.744550 44.191698
-39.797681 -142.333891 44.349819
-41.444032 -141.494210 44.523194
-42.912852 -140.220706 44.684980
-44.325545 -138.810046 44.843101
-45.738239 -137.399387 45.001222
-47.150932 -135.988728 45.159344
-48.618358 -135.187396 45.314593
-49.563100 -133.580032 45.429335
-51.123948 -132.531410 45.597128
-52.678272 -131.466846 45.764495
-54.090965 -130.056187 45.922617
-55.793443 -129.353661 46.099656
-57.206136 -127.943002 46.257777
-58.618829 -126.532343 46.415898
-60.031522 -125.121683 46.574020
-61.444215 -123.711024 46.732141
-62.856909 -122.300364 46.890262
-64.269602 -120.889705 47.048384
-64.979292 -119.183535 47.141337
-66.391985 -117.772875 47.299458
-67.900314 -116.595917 47.463823
-68.804154 -115.364180 47.569450
-70.216847 -113.953520 47.727571
-71.561082 -113.100405 47.871401
-72.560093 -111.515852 47.991173
-73.338706 -109.838654 48.090516
-74.558114 -108.346747 48.230719
-75.461089 -106.721825 48.341590
-76.556135 -105.177641 48.470265
-77.555146 -103.593088 48.590038
-78.293163 -101.898825 48.685617
-79.553167 -100.423982 48.829584
-80.415547 -98.781996 48.936691
-81.549780 -97.840605 49.061054
-82.827715 -96.373300 49.206683
-84.240408 -94.962640 49.364804
-84.950099 -93.256470 49.457757
-85.659789 -91.550300 49.550710
-86.544834 -89.917841 49.659918
-87.543844 -88.333288 49.779691
-88.491863 -86.727300 49.894737
-89.201553 -85.021130 49.987690
-89.911244 -83.314960 50.080643
-91.323937 -81.904301 50.238764
-91.544702 -79.992608 50.286394
-92.543712 -78.408055 50.406167
-93.453008 -76.785790 50.517623
-93.547537 -74.821034 50.553550
-94.546548 -73.236481 50.673323
-95.545559 -71.651929 50.793096
-95.588767 -69.665599 50.824266
-96.549384 -68.064908 50.940480
-97.711150 -66.548770 51.075340
-98.547405 -64.895802 51.180026
-99.130531 -63.136430 51.261246
-99.551230 -61.308781 51.327410
-99.846909 -59.428579 51.381984
-100.556599 -57.722409 51.474937
-101.554066 -56.137207 51.594566
-101.558881 -54.134739 51.622177
-101.982667 -52.308387 51.688627
-103.555494 -51.551362 51.853647
-103.560308 -49.548894 51.881258
-104.401524 -47.898011 51.986403
-104.564134 -45.961873 52.028641
-105.117902 -44.190160 52.107140
-105.567959 -42.374852 52.176025
-105.572774 -40.372384 52.203636
-105.840967 -38.480628 52.255662
-106.576599 -36.785363 52.351020
-107.575609 -35.200810 52.470793
-107.580424 -33.198341 52.498403
-108.579435 -31.613789 52.618176
-108.584249 -29.611320 52.645787
-108.589064 -27.608852 52.673398
-108.699791 -25.650905 52.710827
-109.592889 -24.021831 52.820782
-109.597704 -22.019363 52.848393
-110.125859 -20.236884 52.924517
-110.601529 -18.432342 52.995776
-110.606343 -16.429874 53.023387
-111.551928 -14.822863 53.138207
-111.610169 -12.842853 53.170771
-111.614983 -10.840385 53.198382
-111.619798 -8.837917 53.225992
-111.624612 -6.835448 53.253603
-111.629427 -4.832980 53.281214
-112.628437 -3.248427 53.400987
-112.633252 -1.245959 53.428598
-112.638067 0.756509 53.456209
-112.642881 2.758977 53.483819
-112.647696 4.761445 53.511430
-112.652510 6.763913 53.539041
-112.657325 8.766382 53.566652
-112.662139 10.768850 53.594263
-113.661150 12.353403 53.714036
-113.665965 14.355871 53.741646
-112.869016 16.028011 53.685890
-112.679406 17.950376 53.693284
-112.684221 19.952844 53.720895
-112.689035 21.955313 53.748506
-112.693850 23.957781 53.776117
-112.698664 25.960249 53.803728
-112.703479 27.962717 53.831338
-112.708294 29.965185 53.858949
-112.713108 31.967653 53.886560
-112.191045 33.753047 53.859386
-111.726550 35.562159 53.838198
-111.731364 37.564627 53.865809
-111.495447 39.467914 53.868388
-110.744806 41.159133 53.817447
-110.749620 43.161601 53.845058
-110.754435 45.164069 53.872668
-110.759249 47.166537 53.900279
-110.101314 48.895952 53.858977
-109.772691 50.761043 53.851917
-109.777505 52.763511 53.879528
-108.786132 54.355548 53.803555
-108.790947 56.358016 53.831166
-108.002770 58.033771 53.776321
-107.804388 59.952522 53.782804
-107.809203 61.954990 53.810415
-107.307172 63.748638 53.785324
-106.822644 65.549496 53.762053
-105.904226 67.171591 53.693666
-105.836086 69.144001 53.713691
-105.205691 70.884762 53.675252
-104.849527 72.738507 53.665328
-104.507155 74.597934 53.656839
-103.862969 76.333013 53.616966
-103.867783 78.335481 53.644577
-103.107146 80.022582 53.592596
-102.405673 81.734058 53.546767
-101.889851 83.522024 53.520242
-101.002727 85.157012 53.455109
-100.301253 86.868488 53.409280
-99.599780 88.579965 53.363451
-98.898307 90.291441 53.317622
-97.929174 91.892642 53.243962
-97.933988 93.895110 53.271572
-97.498298 95.716089 53.253380
-96.796825 97.427566 53.207551
-95.956056 99.081653 53.147238
-94.964683 100.673690 53.071265
-93.987994 102.271777 52.996819
-93.286521 103.983254 52.950990
-91.990564 105.449802 52.843346
-91.179163 107.115989 52.786087
-91.004005 109.044308 52.794984
-90.480628 110.829160 52.767673
-89.074743 112.250418 52.648600
-88.373270 113.961895 52.602771
-87.038513 115.412458 52.491093
-86.265913 117.094630 52.437868
-85.564439 118.806106 52.392039
-84.158555 120.227365 52.272965
-83.457082 121.938841 52.227136
-82.081647 123.372645 52.111228
-81.349724 125.071576 52.062233
-80.648251 126.783053 52.016404
-79.242367 128.204311 51.897330
-77.836482 129.625569 51.778256
-76.430598 131.046827 51.659183
-75.137221 132.514439 51.551807
-74.323240 134.179562 51.494280
-72.917356 135.600820 51.375206
-71.511472 137.022078 51.256132
-70.105587 138.443337 51.137058
-68.699703 139.864595 51.017985
-67.998230 141.576071 50.972156
-67.201421 143.248270 50.916414
-65.597687 144.002865 50.768838
-64.191803 145.424123 50.649764
-62.785919 146.845381 50.530690
-61.380034 148.266639 50.411616
-60.250772 149.801866 50.321306
-58.979492 150.693433 50.208298
-57.573608 152.114691 50.089224
-56.121385 153.424374 49.964079
-54.468654 154.251266 49.812662
-52.964567 155.436067 49.680721
-51.363701 156.387841 49.536099
-50.390718 157.445568 49.454695
-48.963158 158.814634 49.332781
-47.264089 159.529951 49.175292
-45.858205 160.951209 49.056218
-44.452320 162.372468 48.937144
-42.913298 163.473152 48.800626
-41.334889 164.478998 48.658947
-39.648297 165.224359 48.503093
-37.949228 165.939676 48.345604
-36.185035 166.498186 48.179582
-34.551090 167.370310 48.030626
-32.852021 168.085627 47.873137
-31.035182 168.517373 47.700217
-29.453882 169.516260 47.558159
-28.461333 170.526874 47.474191
-26.760155 171.237112 47.316425
-24.889889 171.540215 47.136505
-23.311480 172.546062 46.994826
-21.369762 172.677121 46.805543
-19.740035 173.559403 46.657140
-17.971624 174.107754 46.490565
-16.168591 174.572744 46.319454
-14.280300 174.832447 46.137172
-12.597146 175.586084 45.981768
-11.018737 176.591931 45.840089
-9.025702 176.599425 45.644082
-7.032667 176.606920 45.448076
-5.198584 176.997148 45.272897
-3.461222 177.620261 45.110390
-1.468187 177.627755 44.914384
0.524848 177.635250 44.718377
2.184062 178.446532 44.566110
4.096293 178.648591 44.380691
6.089328 178.656085 44.184685
8.082363 178.663580 43.988678
10.075398 178.671074 43.792671
11.854656 178.156171 43.610621
13.651651 177.684611 43.427412
15.644686 177.692106 43.231405
17.637722 177.699600 43.035398
19.630757 177.707095 42.839392
21.623792 177.714589 42.643385
23.616827 177.722084 42.447379
25.220928 176.779158 42.276762
27.193080 176.735621 42.082119
28.915670 176.082240 41.903767
30.769333 175.749158 41.716859
32.762368 175.756652 41.520852
34.755403 175.764147 41.324846
36.594937 175.396538 41.138860
38.331656 174.777683 40.959586
39.999894 173.991487 40.784783
41.702372 173.288961 40.607744
43.404850 172.586435 40.430705
45.074343 171.803305 40.255820
46.809806 171.181383 40.076627
48.512284 170.478858 39.899589
50.233813 169.822884 39.721306
51.917241 169.073806 39.545511
53.619719 168.371280 39.368472
55.322197 167.668755 39.191434
56.976500 166.848506 39.017540
58.437368 165.555569 38.856274
60.139847 164.853044 38.679235
61.552540 163.442384 38.521113
63.255018 162.739858 38.344075
64.667711 161.329199 38.185953
66.475804 160.884760 38.002020
68.362452 160.632281 37.812958
69.775146 159.221622 37.654837
71.225456 157.902887 37.494260
72.890317 157.108437 37.319677
74.303010 155.697777 37.161556
75.715703 154.287118 37.003434
77.128396 152.876458 36.845313
78.541090 151.465799 36.687191
79.953783 150.055140 36.529070
81.488342 148.942279 36.362993
83.068954 147.941954 36.193910
84.481647 146.531295 36.035789
86.184125 145.828769 35.858750
87.596818 144.418110 35.700628
89.009512 143.007450 35.542507
90.422205 141.596791 35.384386
91.834898 140.186132 35.226264
93.247591 138.775472 35.068143
94.035899 137.102349 34.967902
95.369975 135.658643 34.817069
96.782668 134.247983 34.658947
98.195361 132.837324 34.500826
99.608054 131.426665 34.342705
101.020747 130.016005 34.184583
102.018355 128.430862 34.064940
103.143131 126.899176 33.933509
104.016376 125.261757 33.825395
105.265514 123.782346 33.682435
106.678207 122.371687 33.524313
107.387898 120.665517 33.431361
108.097588 118.959347 33.338408
109.510281 117.548687 33.180286
110.219972 115.842517 33.087333
111.889560 115.059620 32.912442
112.632140 113.433821 32.817342
113.341831 111.727651 32.724389
114.754524 110.316992 32.566267
115.004085 108.417404 32.515969
116.003096 106.832851 32.396196
116.883595 105.198481 32.287409
117.593285 103.492311 32.194456
118.302975 101.786141 32.101503
119.012666 100.079971 32.008550
120.599067 99.093793 31.839089
121.001555 97.493348 31.777796
122.000566 95.908795 31.658024
122.844215 94.258935 31.552653
123.004391 92.321774 31.510640
124.003402 90.737221 31.390867
124.973286 89.140425 31.273794
125.007227 87.150200 31.243483
126.006237 85.565647 31.123710
126.399354 83.726403 31.060104
127.812048 82.315744 30.901982
128.009073 80.394073 30.856553
129.008084 78.809520 30.736781
129.238116 76.901723 30.688292
130.011909 75.222499 30.589397
130.657497 73.489383 30.502386
131.015734 71.635478 30.442013
131.373875 69.781532 30.381649
132.083565 68.075362 30.288696
133.018570 66.463904 30.174856
134.017581 64.879351 30.055083
134.022396 62.876883 30.027473
134.922326 61.250681 29.916884
135.026221 59.289862 29.880089
135.031035 57.287394 29.852478
136.030046 55.702841 29.732705
136.034861 53.700373 29.705094
137.033871 52.115820 29.585321
137.774463 50.422639 29.489504
138.037696 48.528799 29.437938
138.042511 46.526331 29.410327
138.047326 44.523862 29.382716
138.504216 42.711427 29.313198
139.051151 40.936841 29.235332
139.055965 38.934373 29.207721
139.227282 37.001895 29.164676
140.059791 35.347352 29.060338
140.064605 33.344884 29.032727
141.063616 31.760331 28.912954
141.068430 29.757863 28.885343
141.073245 27.755395 28.857732
141.078059 25.752927 28.830122
141.082874 23.750459 28.802511
141.087689 21.747990 28.774900
142.086699 20.163437 28.655127
142.091514 18.160969 28.627516
142.096328 16.158501 28.599905
142.101143 14.156033 28.572295
142.105958 12.153565 28.544684
142.110772 10.151097 28.517073
142.115587 8.148629 28.489462
142.120401 6.146160 28.461851
142.855984 4.450874 28.366498
144.740432 4.193018 28.177580
146.323649 3.199061 28.008327
147.963419 2.343297 27.835382
149.490084 1.211146 27.669820
151.368375 0.938245 27.481304
152.781068 -0.472414 27.323183
154.483546 -1.174940 27.146144
155.896239 -2.585599 26.988023
157.308933 -3.996258 26.829902
158.721626 -5.406918 26.671780
160.134319 -6.817577 26.513659
161.746005 -7.741968 26.342547
162.546487 -9.226273 26.243667
163.959181 -10.636933 26.085546
165.661659 -11.339458 25.908507
167.364137 -12.041984 25.731468
168.776830 -13.452644 25.573347
169.486520 -15.158814 25.480394
170.899214 -16.569473 25.322273
172.034715 -18.096651 25.189847
173.021597 -19.686303 25.071198
174.032737 -21.265757 24.950301
175.143981 -22.803132 24.820124
176.030758 -24.434863 24.710755
176.563361 -26.215472 24.634218
178.027371 -27.018240 24.479286
178.975530 -28.624168 24.364227
180.025392 -30.187345 24.239740
180.394911 -32.036508 24.178321
181.104601 -33.742678 24.085368
182.028228 -35.358919 23.972583
182.523982 -37.155019 23.899462
183.936675 -38.565678 23.741341
184.031064 -40.530493 23.705426
185.356056 -41.978018 23.555435
186.029085 -43.699599 23.465881
186.775436 -45.390359 23.369529
187.032910 -47.286620 23.318497
187.037725 -49.289088 23.290886
188.036736 -50.873641 23.171113
188.041550 -52.876109 23.143502
188.046365 -54.878577 23.115891
188.221567 -56.809422 23.072486
189.875020 -57.631748 22.898647
190.047792 -59.464422 22.856811
190.052607 -61.466890 22.829200
190.057422 -63.469359 22.801589
190.062236 -65.471827 22.773979
190.067051 -67.474295 22.746368
190.071865 -69.476763 22.718757
190.076680 -71.479231 22.691146
190.081494 -73.481699 22.663535
190.086309 -75.484167 22.635924
190.091124 -77.486636 22.608314
190.095938 -79.489104 22.580703
189.492991 -81.241173 22.616287
189.109380 -83.083609 22.629065
189.114194 -85.086077 22.601454
188.122821 -86.678115 22.677427
188.127636 -88.680583 22.649816
188.132450 -90.683051 22.622205
188.101796 -92.670906 22.598283
187.145892 -94.277557 22.670567
186.698849 -96.093859 22.689941
185.997376 -97.805336 22.735770
185.167960 -99.464100 22.794902
184.594430 -101.228289 22.827428
183.892956 -102.939766 22.873257
183.190028 -104.650643 22.919237
183.194421 -106.652937 22.891670
182.203470 -108.245148 22.967599
181.212097 -109.837186 23.043572
180.385590 -111.497149 23.102402
179.684117 -113.208625 23.148231
178.278233 -114.629883 23.267305
177.576759 -116.341360 23.313134
176.170875 -117.762618 23.432208
175.263858 -119.389410 23.499409
174.272485 -120.981448 23.575382
173.362044 -122.606829 23.642940
171.956160 -124.028088 23.762013
170.550276 -125.449346 23.881087
169.848802 -127.160823 23.926916
168.442918 -128.582081 24.045990
167.037034 -130.003339 24.165064
165.631149 -131.424597 24.284138
164.225265 -132.845855 24.403211
162.819381 -134.267114 24.522285
161.120311 -134.982430 24.679774
159.714427 -136.403689 24.798848
158.308543 -137.824947 24.917922
156.902658 -139.246205 25.036996
155.203589 -139.961522 25.194485
154.418133 -141.638397 25.249046
152.803047 -142.388315 25.397803
151.103978 -143.103632 25.555292
149.404908 -143.818949 25.712781
147.808808 -144.782198 25.856778
146.230399 -145.788044 25.998457
144.600886 -146.670841 26.146832
142.901816 -147.386157 26.304321
141.202747 -148.101474 26.461810
139.503678 -148.816791 26.619299
138.097794 -150.238049 26.738373
136.345318 -150.824771 26.902860
134.406470 -150.962741 27.091766
132.773873 -151.838112 27.240546
131.008332 -152.393375 27.406744
129.202429 -152.851453 27.578231
127.209393 -152.858948 27.774238
125.617939 -153.833384 27.917626
123.918870 -154.548700 28.075115
122.059540 -154.878135 28.253603
120.227547 -155.273393 28.428509
118.488095 -155.891476 28.591289
116.495060 -155.898971 28.787295
114.502025 -155.906465 28.983302
112.508990 -155.913960 29.179308
110.515954 -155.921454 29.375315
108.567207 -156.035586 29.565519
106.944510 -156.934795 29.713001
104.951475 -156.942290 29.909007
103.174282 -156.422341 30.090924
101.375222 -155.955826 30.274267
99.382187 -155.963321 30.470274
97.389152 -155.970815 30.666280
95.495014 -155.736638 30.855831
93.812899 -154.984352 31.031540
91.819864 -154.991847 31.227547
89.826829 -154.999341 31.423553
87.833793 -155.006836 31.619560
86.250576 -154.012878 31.788813
84.257541 -154.020373 31.984820
82.674323 -153.026415 32.154073
81.005834 -152.240833 32.328893
79.098071 -152.039952 32.519333
77.514853 -151.045994 32.688586
75.521818 -151.053489 32.884593
73.616351 -150.846997 33.074883
71.945566 -150.067026 33.249853
70.362348 -149.073068 33.419106
68.369313 -149.080562 33.615113
66.376278 -149.088057 33.811119
64.526046 -149.439400 33.988415
62.826977 -150.154717 34.145904
61.226424 -151.107244 34.290484
59.899838 -152.364551 34.403977
58.652576 -153.116745 34.516510
57.028296 -154.012144 34.664200
55.081131 -154.130086 34.854196
53.336973 -154.736836 35.017593
51.509687 -155.143427 35.191882
49.931278 -156.149274 35.333561
47.938242 -156.156768 35.529568
46.247511 -156.892161 35.685964
44.548442 -157.607478 35.843453
42.788389 -158.175956 36.008933
41.150303 -159.038112 36.158431
39.216944 -159.189296 36.346618
37.223909 -159.196791 36.542625
35.230874 -159.204285 36.738632
33.652465 -160.210132 36.880311
31.659429 -160.217626 37.076317
29.666394 -160.225121 37.272324
28.084079 -161.221563 37.414515
26.094950 -161.238462 37.610010
24.101914 -161.245956 37.806016
22.108879 -161.253451 38.002023
20.115844 -161.260945 38.198029
3.838145 -97.733173 48.870608
2.242807 -96.752176 48.993298
0.244318 -96.775688 49.117057
-1.754172 -96.799201 49.240816
-3.752661 -96.822714 49.364575
-5.751150 -96.846226 49.488334
-7.346488 -95.865229 49.611025
-9.344977 -95.888741 49.734784
-11.343466 -95.912254 49.858543
-13.341956 -95.935767 49.982302
-14.999463 -95.109674 50.105157
-16.935783 -94.978282 50.228751
-18.934272 -95.001794 50.352511
-20.932761 -95.025307 50.476270
-22.705549 -94.486452 50.599430
-24.526588 -94.067822 50.722719
-26.130986 -93.109397 50.845433
-28.120416 -93.110337 50.969168
-30.118905 -93.133850 51.092927
-31.714243 -92.152852 51.215618
-33.552001 -91.775879 51.338951
-35.308070 -91.195367 51.462067
-37.306559 -91.218880 51.585826
-38.975226 -90.420592 51.708711
-40.687945 -89.732065 51.831712
-42.495725 -89.280397 51.954966
-44.494214 -89.303910 52.078725
-46.111170 -88.376778 52.201472
-47.823889 -87.688250 52.324474
-49.536607 -86.999723 52.447475
-51.278717 -86.384430 52.570555
-53.247114 -86.332964 52.694234
-54.674762 -84.934140 52.816480
-56.387480 -84.245613 52.939481
-58.063220 -83.464950 53.062384
-59.812917 -82.868558 53.185484
-61.657048 -82.507465 53.308834
-63.238353 -81.491503 53.431487
-64.847724 -80.545469 53.554214
-66.443062 -79.564472 53.676904
-68.376508 -79.425920 53.800491
-69.804155 -78.027096 53.922737
-71.231803 -76.628273 54.044982
-72.824414 -75.640481 54.167665
-74.372168 -74.540922 54.290229
-76.015090 -73.678486 54.413046
-77.797605 -73.163867 54.536232
-79.225252 -71.765043 54.658478
-80.652899 -70.366220 54.780723
-82.080547 -68.967396 54.902969
-83.588629 -67.768988 55.025428
-85.505983 -67.590341 55.148972
-86.933631 -66.191517 55.271217
-88.328333 -64.778578 55.391751
-89.086219 -63.092778 55.479192
-90.513866 -61.693954 55.601437
-92.172880 -60.871614 55.724296
-93.367254 -60.071790 55.817713
-94.664244 -58.616983 55.933169
-95.395826 -56.919913 56.019243
-96.816832 -55.518244 56.141143
-97.541773 -53.818327 56.226872
-99.184727 -52.955973 56.349689
-100.682139 -51.730976 56.472119
-101.455033 -50.051607 56.560340
-102.834727 -48.632237 56.680093
-103.559668 -46.932321 56.765822
-105.185863 -46.028208 56.888594
-105.997327 -44.543877 56.974552
-106.520463 -42.757493 57.049794
-107.447209 -41.144045 57.146010
-108.172150 -39.444129 57.231739
-109.599797 -38.045305 57.353984
-110.577607 -36.453737 57.452854
-110.598116 -34.451989 57.501976
-111.612402 -32.876051 57.602741
-111.796855 -30.944549 57.660382
-113.458701 -30.129266 57.783249
-113.655483 -28.308004 57.839023
-113.675992 -26.306257 57.888145
-114.690278 -24.730318 57.988910
-115.003924 -22.854172 58.053265
-115.725073 -21.152631 58.138797
-116.453806 -19.454340 58.224723
-116.759868 -17.574944 58.288684
-117.200981 -15.753415 58.359663
-117.794663 -13.997258 58.438571
-117.815172 -11.995510 58.487693
-117.835681 -9.993762 58.536816
-117.992626 -8.050474 58.593028
-118.870476 -6.416075 58.686703
-118.890985 -4.414327 58.735825
-118.353522 -2.636559 58.744884
-117.929741 -0.813157 58.762105
-118.918586 0.773683 58.861548
-118.964536 2.764530 58.911992
-117.982784 4.363953 58.889149
-118.003293 6.365700 58.938272
-118.023802 8.367448 58.987394
-118.044311 10.369196 59.036516
-117.062558 11.968619 59.013674
-117.083067 13.970367 59.062796
-116.285012 15.643529 59.053143
-116.121824 17.571537 59.089076
-116.142333 19.573285 59.138198
-115.160580 21.172708 59.115355
-114.233969 22.794265 59.096472
-114.199337 24.773878 59.141635
-114.219846 26.775626 59.190757
-113.581569 28.512926 59.192577
-112.256341 29.974472 59.145072
-111.492989 31.661564 59.137911
-111.295097 33.575642 59.171352
-110.313344 35.175065 59.148509
-109.423177 36.811251 59.132243
-108.349839 38.373910 59.102824
-107.368087 39.973333 59.079982
-107.388596 41.975080 59.129104
-106.663429 43.677501 59.124685
-105.264785 45.109576 59.071909
-103.866142 46.541652 59.019133
-102.467499 47.973727 58.966356
-102.479833 49.972194 59.014892
-101.087625 51.406852 58.962577
-100.397687 53.123415 58.960688
-98.999044 54.555490 58.907912
-97.600401 55.987565 58.855135
-96.201758 57.419641 58.802359
-95.511821 59.136203 58.800470
-93.905166 60.079825 58.723078
-92.615290 61.377345 58.673852
-91.725042 63.013499 58.657580
-90.326398 64.445574 58.604804
-88.927755 65.877650 58.552027
-88.047418 67.147112 58.527607
-86.539620 68.322870 58.461914
-85.716513 69.985976 58.450462
-84.151484 70.768090 58.371800
-82.752841 72.200166 58.319024
-81.054642 72.928823 58.230800
-79.606554 74.244791 58.172172
-77.957801 75.089556 58.089799
-77.267864 76.806119 58.087910
-75.869220 78.238194 58.035133
-74.171022 78.966852 57.946909
-72.472824 79.695510 57.858685
-71.074180 81.127585 57.805909
-69.590836 82.360765 57.743110
-67.977339 83.288318 57.664908
-66.441128 84.397356 57.595853
-64.866274 85.415651 57.522225
-63.182299 86.177709 57.435684
-62.301191 87.445364 57.411172
-60.494608 87.919512 57.310122
-58.796410 88.648169 57.221898
-57.152994 89.505468 57.140157
-55.400013 90.105485 57.045450
-54.587912 91.535181 57.029104
-53.011877 92.550705 56.955336
-51.313679 93.279362 56.867112
-49.439714 93.595285 56.758089
-47.917282 94.736678 56.690664
-46.290006 95.631876 56.610832
-44.520885 96.193993 56.514215
-42.716663 96.673684 56.413445
-41.124488 97.651309 56.337767
-39.566954 98.710276 56.266188
-37.728091 99.108624 56.161319
-35.993611 99.752084 56.068801
-34.032139 99.862522 55.949422
-32.633496 101.294597 55.896646
-30.845413 101.812188 55.797786
-29.237099 102.751913 55.720198
-27.272070 102.853996 55.600398
-25.273581 102.877509 55.476639
-24.184159 104.371435 55.444577
-22.708499 104.907221 55.365586
-20.710009 104.930734 55.241827
-18.857949 105.298092 55.135396
-17.159751 106.026750 55.047172
-15.561812 106.990838 54.970812
-13.563323 107.014351 54.847053
-11.564833 107.037863 54.723293
-9.566344 107.061376 54.599534
-8.254560 108.337430 54.548432
-7.001262 109.091089 54.488482
-5.002773 109.114602 54.364723
-3.004284 109.138114 54.240963
-1.086895 109.352068 54.126801
0.569060 110.179922 54.043576
2.567549 110.203435 53.919817
4.566038 110.226948 53.796058
6.305009 110.859863 53.703009
8.139381 111.268756 53.598670
10.137871 111.292269 53.474911
12.136360 111.315781 53.351152
13.996468 111.664240 53.243768
15.709703 112.357590 53.153765
17.693183 112.343704 53.030046
19.303530 111.400105 52.907316
21.302020 111.423617 52.783556
22.876874 112.441913 52.709928
24.875363 112.465425 52.586169
26.873852 112.488938 52.462410
28.872341 112.512451 52.338651
30.870831 112.535963 52.214892
32.869320 112.559476 52.091133
34.512518 111.697730 51.968315
36.463147 111.601991 51.844683
38.461636 111.625504 51.720924
40.460125 111.649016 51.597165
42.458615 111.672529 51.473406
44.457104 111.696042 51.349647
46.455593 111.719554 51.225888
48.454082 111.743067 51.102128
50.049420 110.762069 50.979438
51.922479 110.473054 50.856012
53.643248 109.804584 50.732989
55.641737 109.828097 50.609230
57.640226 109.851610 50.485471
59.343494 109.139536 50.362494
61.234053 108.894125 50.239021
63.232542 108.917637 50.115262
65.051791 108.494545 49.991978
66.826370 107.960153 49.868813
68.477227 107.117490 49.745975
70.420197 107.002668 49.622363
72.418686 107.026180 49.498604
74.014024 106.045183 49.375914
75.898242 105.783972 49.252458
77.607851 105.087698 49.129465
79.203189 104.106700 49.006775
81.201679 104.130213 48.883015
82.797017 103.149215 48.760325
84.746904 103.051630 48.636695
86.390844 102.191730 48.513876
88.172341 101.674575 48.390692
89.885059 100.986048 48.267691
91.580009 100.253248 48.144736
93.175347 99.272250 48.022046
94.770685 98.291252 47.899356
96.735932 98.231938 47.775685
98.364512 97.333767 47.652906
99.959850 96.352770 47.530216
101.589016 95.456059 47.407436
103.553678 95.395285 47.283767
105.149016 94.414287 47.161077
106.727171 93.390476 47.038432
108.154818 91.991653 46.916186
109.582466 90.592829 46.793941
111.127217 89.485786 46.671385
113.125706 89.509299 46.547626
114.720621 88.527247 46.424937
116.148268 87.128423 46.302691
117.575915 85.729600 46.180445
119.003563 84.330776 46.058200
120.699245 83.599801 45.935244
122.143928 82.243425 45.812953
123.856646 81.554897 45.689951
124.788910 79.943814 45.593449
126.009235 78.456158 45.481977
127.436882 77.057334 45.359731
129.149600 76.368807 45.236730
130.577248 74.969983 45.114484
132.004895 73.571160 44.992239
132.856180 71.925379 44.899944
134.157483 70.472420 44.784264
134.884752 68.773501 44.698415
136.310072 67.373680 44.576290
138.022790 66.685153 44.453289
138.915387 65.057073 44.358847
140.175378 63.586413 44.245314
140.943959 61.905196 44.157318
142.327966 60.487674 44.037340
143.052907 58.787757 43.951611
143.986816 57.177379 43.855023
145.001102 55.601440 43.754258
145.227730 53.688009 43.694425
146.655378 52.289186 43.572179
148.037961 51.459203 43.466334
148.058470 49.457455 43.417211
149.072756 47.881517 43.316447
149.137506 45.898725 43.265025
150.565153 44.499902 43.142780
151.121836 42.727891 43.065795
151.312329 40.798977 43.007839
152.156631 39.150204 42.915907
152.177140 37.148457 42.866785
153.191426 35.572518 42.766020
154.205712 33.996579 42.665256
154.226221 31.994831 42.616133
154.256562 29.997296 42.566500
155.261016 28.417144 42.466246
155.281525 26.415396 42.417124
155.302034 24.413648 42.368002
155.322543 22.411901 42.318879
156.336829 20.835962 42.218115
156.357338 18.834214 42.168992
155.525449 17.174633 42.181074
155.396095 15.233043 42.142713
155.416604 13.231295 42.093590
155.437113 11.229548 42.044468
155.457622 9.227800 41.995346
155.478131 7.226052 41.946224
154.496378 5.626629 41.969066
154.516887 3.624881 41.919944
154.537396 1.623133 41.870822
154.276956 -0.265837 41.841872
153.576153 -1.978037 41.844542
153.596662 -3.979785 41.795420
152.915851 -5.700011 41.796654
152.635418 -7.580956 41.769140
151.653666 -9.180378 41.791982
150.846039 -10.849698 41.802322
150.692422 -12.781549 41.765703
150.174871 -14.567310 41.755214
149.484933 -16.283872 41.757104
148.749426 -17.982142 41.762265
147.767674 -19.581565 41.785108
147.415122 -21.433559 41.762772
146.016479 -22.865635 41.815549
145.326541 -24.582197 41.817438
143.927898 -26.014273 41.870214
143.861172 -27.981003 41.827356
143.256730 -29.731884 41.823107
141.858086 -31.163960 41.875883
140.915915 -32.779271 41.895883
139.769506 -34.312598 41.930548
138.952409 -35.978116 41.941568
137.680926 -37.461236 41.985214
136.988904 -39.176961 41.987253
135.592345 -40.609873 42.039880
134.193702 -42.041949 42.092656
132.795059 -43.474024 42.145432
132.059632 -45.172327 42.150588
130.549495 -46.254032 42.218675
129.087866 -47.383267 42.282608
128.318343 -49.067882 42.290212
126.919700 -50.499958 42.342988
125.521056 -51.932033 42.395764
124.122413 -53.364109 42.448541
122.723770 -54.796184 42.501317
121.325127 -56.228260 42.554093
119.806193 -57.377868 42.621104
118.228285 -58.388993 42.695093
116.656485 -59.414459 42.768360
115.131444 -60.549726 42.836094
114.267542 -62.196456 42.850474
112.743308 -62.994946 42.926208
111.045110 -63.723604 43.014432
109.646466 -65.155679 43.067208
107.948268 -65.884337 43.155432
107.225393 -67.523554 43.161219
105.560132 -68.329557 43.245546
103.861934 -69.058215 43.333770
102.163736 -69.786872 43.421994
100.765092 -71.218948 43.474770
99.351122 -72.615032 43.529360
97.668251 -73.379681 43.615771
95.970052 -74.108339 43.703995
94.202925 -74.675136 43.800376
92.573655 -75.565654 43.880443
91.053216 -76.711727 43.947632
89.476814 -77.726387 44.021444
87.778615 -78.455045 44.109668
85.905019 -78.771831 44.218648
84.382219 -79.912361 44.286116
82.755310 -80.808422 44.365904
81.180456 -81.826718 44.439532
79.287623 -82.098334 44.550789
77.607113 -82.868526 44.636920
76.190782 -84.259067 44.691789
74.457405 -84.905117 44.784176
72.494830 -85.012964 44.903685
70.884061 -85.946926 44.981563
69.098433 -86.470280 45.080134
67.400235 -87.198938 45.168358
65.735864 -88.007030 45.252579
63.737375 -88.030542 45.376338
61.738885 -88.054055 45.500097
60.648225 -89.546769 45.532265
59.173803 -90.083768 45.611150
57.175314 -90.107280 45.734909
55.600460 -91.125576 45.808537
53.624688 -91.202433 45.929608
52.027116 -92.167384 46.005925
50.028627 -92.190897 46.129684
48.030138 -92.214410 46.253443
46.232783 -92.710228 46.353401
44.834140 -94.142304 46.406177
42.881941 -94.274513 46.524458
40.883451 -94.298026 46.648218
38.884962 -94.321539 46.771977
37.142681 -94.946681 46.865417
35.311619 -95.363347 46.969364
33.313130 -95.386860 47.093123
31.314640 -95.410372 47.216882
29.451222 -95.751059 47.324658
27.741297 -96.452181 47.414270
25.742808 -96.475693 47.538029
23.744319 -96.499206 47.661788
22.059318 -97.258854 47.748450
20.170975 -97.541014 47.859175
18.575637 -96.560017 47.981865
16.577148 -96.583529 48.105625
14.646930 -96.767356 48.221305
13.003805 -97.625337 48.303012
11.005315 -97.648850 48.426771
9.240887 -97.089167 48.549910
7.411488 -96.691365 48.673220
5.835899 -97.707933 48.746936
-69.012111 -140.658301 81.313698
-70.608299 -139.698357 81.535050
-72.597307 -139.746986 81.749544
-74.422661 -139.375431 81.966895
-76.182502 -138.835670 82.185390
-78.122283 -138.757907 82.400744
-79.767698 -137.924355 82.621236
-81.544139 -137.427214 82.839441
-83.255067 -136.761868 83.058790
-84.949082 -136.053095 83.278434
-86.545270 -135.093151 83.499786
-88.141458 -134.133207 83.721138
-90.098780 -134.100483 83.936185
-91.531943 -132.721968 84.160383
-93.242871 -132.056622 84.379732
-94.676034 -130.678107 84.603929
-96.109197 -129.299592 84.828127
-97.718587 -128.373543 85.049249
-99.253288 -127.255731 85.271674
-100.686451 -125.877216 85.495872
-102.119614 -124.498701 85.720069
-103.552777 -123.120186 85.944267
-104.288648 -121.432033 86.107685
-105.721811 -120.053518 86.331883
-107.154974 -118.675003 86.556081
-108.238548 -117.141250 86.749806
-109.324008 -115.608334 86.943696
-110.286368 -114.020755 87.126856
-110.795750 -112.232027 87.270532
-111.531621 -110.543873 87.433950
-112.371980 -108.902118 87.606476
-113.395891 -107.341871 87.795001
-114.419801 -105.781623 87.983526
-114.475105 -103.791258 88.087622
-115.481502 -102.223233 88.274620
-115.519293 -100.225090 88.377189
-116.543204 -98.664843 88.565714
-116.580994 -96.666700 88.668284
-116.759877 -94.731210 88.783151
-117.642696 -93.108310 88.959378
-117.680486 -91.110167 89.061947
-117.718277 -89.112024 89.164517
-117.756068 -87.113881 89.267086
-117.793859 -85.115739 89.369655
-117.831650 -83.117596 89.472225
-117.869441 -81.119453 89.574794
-117.342550 -79.340750 89.604976
-116.943258 -77.512462 89.651515
-116.981049 -75.514319 89.754084
-116.036812 -73.897801 89.730766
-116.054866 -71.907327 89.830806
-115.402437 -70.177410 89.844895
-115.128684 -68.300336 89.907527
-114.164710 -66.691488 89.881679
-113.388344 -65.009734 89.879880
-112.716980 -63.287175 89.891542
-112.274555 -61.475648 89.932552
-112.312345 -59.477506 90.035121
-113.274368 -57.889777 90.218252
-114.010239 -56.201623 90.381670
-115.443402 -54.823108 90.605868
-116.407987 -53.236517 90.789221
-117.612436 -51.756439 90.993483
-118.455808 -50.116022 91.166272
-119.781470 -48.689771 91.381099
-120.517341 -47.001617 91.544517
-121.527539 -45.435280 91.731847
-122.551450 -43.875033 91.920372
-123.422246 -42.246794 92.095550
-124.599271 -40.754539 92.297422
-124.893988 -38.870487 92.422386
-125.660972 -37.196149 92.588516
-126.684882 -35.635901 92.777041
-127.708793 -34.075654 92.965566
-127.837472 -32.117871 93.076058
-128.770494 -30.517264 93.256661
-129.309215 -28.741564 93.402894
-129.832195 -26.958874 93.547755
-130.083665 -25.055617 93.668950
-130.893897 -23.400484 93.838849
-131.555407 -21.679309 93.995785
-131.955598 -19.842094 94.129944
-131.993389 -17.843951 94.232513
-133.017299 -16.283704 94.421038
-133.055090 -14.285561 94.523607
-133.092881 -12.287418 94.626176
-133.181466 -10.311830 94.733173
-134.154582 -8.729028 94.917271
-134.192373 -6.730885 95.019840
-134.230164 -4.732742 95.122409
-134.267955 -2.734599 95.224979
-134.305745 -0.736456 95.327548
-134.343536 1.261687 95.430117
-134.381327 3.259830 95.532687
-134.419118 5.257973 95.635256
-133.983157 7.072011 95.677094
-133.492935 8.864964 95.711977
-133.530726 10.863107 95.814546
-133.568517 12.861250 95.917116
-132.714408 14.512792 95.905351
-132.642335 16.468241 95.993837
-132.680125 18.466384 96.096406
-131.716152 20.075232 96.070558
-131.445659 21.953573 96.133608
-130.789969 23.682223 96.147279
-130.811285 25.673964 96.247737
-129.863787 27.289215 96.224001
-129.468557 29.119081 96.271060
-128.797192 30.841640 96.282722
-127.973631 32.505054 96.274874
-127.454464 34.286758 96.306046
-126.783099 36.009317 96.317708
-126.083475 37.720894 96.325747
-125.440371 39.454434 96.341032
-124.155528 40.938590 96.274051
-123.389288 42.624279 96.273551
-122.717924 44.346838 96.285212
-122.046559 46.069397 96.296874
-121.301399 47.763278 96.299076
-119.995476 49.239242 96.229393
-118.615758 50.686528 96.150250
-117.944393 52.409086 96.161912
-117.273029 54.131645 96.173574
-115.893311 55.578931 96.094431
-115.221946 57.301490 96.106093
-113.842228 58.748776 96.026950
-112.587848 60.244770 95.963875
-111.791145 61.918621 95.959469
-110.411426 63.365907 95.880326
-109.031708 64.813193 95.801183
-107.651989 66.260479 95.722040
-106.272270 67.707765 95.642897
-104.892552 69.155051 95.563755
-103.512833 70.602337 95.484612
-102.133115 72.049623 95.405469
-100.753396 73.496909 95.326326
-99.373677 74.944195 95.247183
-97.993959 76.391481 95.168040
-96.442794 77.445202 95.050811
-94.930049 78.587119 94.942117
-93.550331 80.034405 94.862974
-92.170612 81.481691 94.783831
-90.639708 82.581923 94.671103
-89.081290 83.618993 94.552262
-87.422512 84.425682 94.411127
-86.042793 85.872968 94.331984
-84.406034 86.730203 94.195741
-82.978883 88.068606 94.106061
-81.294693 88.816958 93.959281
-79.730778 89.841412 93.839220
-78.230783 91.012597 93.733358
-76.613941 91.915552 93.601539
-75.055522 92.952622 93.482698
-73.482682 93.956587 93.360654
-71.798491 94.704940 93.213874
-70.114301 95.453292 93.067093
-68.430110 96.201644 92.920313
-66.832840 97.149530 92.792842
-65.274422 98.186600 92.674001
-63.682009 99.145635 92.547609
-61.997818 99.893988 92.400829
-60.313627 100.642340 92.254049
-58.629436 101.390692 92.107268
-57.051740 102.383509 91.984145
-55.261054 102.887397 91.813708
-53.576863 103.635749 91.666927
-51.945895 104.506277 91.531970
-50.208481 105.132454 91.373367
-48.524290 105.880807 91.226586
-46.840050 106.629046 91.079795
-45.155908 107.377511 90.933025
-43.292624 107.714744 90.746460
-41.734205 108.751814 90.627620
-39.798863 108.923635 90.425047
-38.186779 109.837512 90.294285
-36.197771 109.886141 90.079791
-34.639353 110.923211 89.960950
-32.650345 110.971839 89.746456
-31.073436 111.966463 89.623508
-29.102919 112.057538 89.413121
-27.400582 112.764234 89.262310
-25.555493 113.143236 89.079786
-23.727727 113.562005 88.901112
-22.008067 114.228935 88.746452
-20.019059 114.277563 88.531957
-18.370682 115.108129 88.393133
-16.471633 115.363262 88.198623
-14.482625 115.411890 87.984128
-12.709164 115.955319 87.817517
-10.935199 116.497589 87.650794
-8.946192 116.546218 87.436299
-6.957184 116.594846 87.221805
-5.363456 117.550861 87.095121
-3.409758 117.680545 86.888470
-1.420750 117.729173 86.673976
0.568257 117.777802 86.459482
2.557265 117.826430 86.244988
4.275389 118.496888 86.090669
6.104691 118.912129 85.911653
8.093699 118.960757 85.697159
10.082706 119.009386 85.482664
12.071714 119.058014 85.268170
14.060721 119.106643 85.053676
16.049729 119.155271 84.839182
18.038737 119.203900 84.624687
20.027744 119.252529 84.410193
22.016752 119.301157 84.195699
24.005759 119.349786 83.981205
25.994767 119.398414 83.766710
27.983774 119.447043 83.552216
29.972782 119.495671 83.337722
31.961790 119.544300 83.123227
33.557978 118.584356 82.901876
35.546985 118.632984 82.687381
37.535993 118.681613 82.472887
39.525000 118.730241 82.258393
41.514008 118.778870 82.043899
43.201955 118.054518 81.824149
45.099204 117.867554 81.608053
47.088211 117.916183 81.393558
49.077219 117.964812 81.179064
50.673407 117.004868 80.957712
52.662415 117.053496 80.743218
54.651422 117.102125 80.528724
56.289513 116.249768 80.308103
58.236618 116.190809 80.092878
60.225625 116.239438 79.878383
61.821813 115.279494 79.657031
63.810821 115.328122 79.442537
65.407009 114.368178 79.221185
67.396017 114.416807 79.006691
69.099307 113.731850 78.787209
70.981212 113.505491 78.570845
72.798929 113.114326 78.353361
74.566408 112.594176 78.134999
76.220785 111.783633 77.914663
78.151604 111.682860 77.699153
