ply
format ascii 1.0
element vertex 1448
property float x
property float y
property float z
end_header
16.618654 -29.717262 31.612158
15.034964 -28.717884 31.787591
13.037206 -28.718386 31.982054
11.453516 -27.719008 32.157486
9.807216 -26.870818 32.335797
7.872067 -26.720131 32.527382
6.288377 -25.720753 32.702815
4.290619 -25.721255 32.897277
2.702986 -24.731396 33.072891
1.292917 -23.312763 33.240345
-0.460452 -22.723121 33.423576
-2.112802 -21.889541 33.602164
-3.522872 -20.470909 33.769617
-5.211523 -19.724988 33.949874
-6.635801 -18.340666 34.117980
-8.045870 -16.922033 34.285433
-9.748730 -16.210422 34.466343
-11.158800 -14.791790 34.633796
-12.568869 -13.373157 34.801249
-13.978938 -11.954525 34.968702
-15.196060 -10.455623 35.119081
-16.094769 -8.824256 35.241283
-17.504838 -7.405624 35.408736
-18.173331 -5.678483 35.510565
-18.916360 -3.982351 35.618990
-20.158178 -2.493723 35.771554
-21.032190 -0.852082 35.891570
-22.143025 0.691037 36.032543
-23.148021 2.278187 36.164150
-24.127873 3.875797 36.293532
-24.124254 5.882548 36.335884
-24.560995 7.706101 36.417205
-25.266756 9.417737 36.522332
-26.105482 11.074058 36.639225
-26.101863 13.080808 36.681577
-27.094286 14.673188 36.812072
-27.090668 16.679939 36.854423
-27.087049 18.686689 36.896775
-27.083430 20.693440 36.939127
-27.079811 22.700190 36.981479
-27.076192 24.706941 37.023831
-26.752872 26.580651 37.032230
-26.074405 28.306571 37.002912
-26.032254 30.297287 37.041172
-24.617067 31.716628 36.933613
-24.074450 33.499080 36.918723
-23.193196 35.140612 36.867869
-22.481261 36.852605 36.834996
-21.066074 38.271946 36.727438
-20.081778 39.870598 36.665640
-18.938951 41.403280 36.587007
-17.291953 42.258049 36.444868
-15.528095 42.828212 36.285297
-14.112908 44.247554 36.177738
-12.407480 44.960020 36.026883
-10.702052 45.672486 35.876028
-8.945009 46.259245 35.717474
-7.000956 46.390544 35.531023
-5.359955 47.259920 35.389778
-3.362196 47.260421 35.195316
-1.364438 47.260922 35.000853
0.633320 47.261424 34.806390
2.396905 47.832250 34.646860
4.218375 48.262099 34.478694
5.804173 47.267812 34.303165
7.799823 47.263222 34.108799
9.795473 47.258633 33.914433
11.381272 46.264346 33.738903
13.379030 46.264847 33.544441
14.962720 45.265469 33.369008
16.606912 44.412189 33.190795
18.544169 44.266592 32.999113
20.012631 42.988966 32.828976
21.711549 42.267837 32.648247
23.418351 41.565744 32.467156
25.121211 40.854133 32.286247
26.531280 39.435501 32.118794
27.941349 38.016869 31.951340
29.630001 37.270947 31.771084
31.347069 36.593647 31.589521
32.757138 35.175014 31.422068
34.167208 33.756382 31.254615
35.577277 32.337750 31.087161
36.987347 30.919117 30.919708
38.397416 29.500485 30.752255
39.614537 28.001583 30.601876
40.513246 26.370216 30.479675
41.923316 24.951584 30.312221
42.629077 23.239947 30.207094
44.039146 21.821315 30.039641
45.449216 20.402682 29.872188
46.154976 18.691046 29.767061
46.561503 16.854923 29.688414
47.553926 15.262543 29.557920
48.272259 13.556136 29.451680
48.978020 11.844500 29.346553
49.535155 10.071032 29.254579
50.389542 8.421227 29.136299
50.523959 6.471902 29.081732
50.520340 4.465151 29.039380
51.512764 2.872771 28.908886
51.509145 0.866021 28.866534
51.805421 -1.015968 28.797643
52.497950 -2.733110 28.693687
51.772802 -4.439604 28.727963
51.496163 -6.332740 28.714606
51.492544 -8.339490 28.672254
51.043501 -10.160882 28.677207
50.490757 -11.939120 28.693173
50.322883 -13.877518 28.668265
49.488970 -15.538750 28.714092
48.195761 -17.008851 28.808696
47.492634 -18.724509 28.840633
46.771891 -20.432836 28.874441
45.356703 -21.852177 28.982000
43.941516 -23.271519 29.089558
42.526328 -24.690860 29.197117
40.820900 -25.403326 29.347972
39.360368 -26.712230 29.462295
37.700285 -27.535134 29.606385
36.185775 -28.712577 29.728760
34.188017 -28.713078 29.923223
32.584001 -29.672533 30.058950
30.602962 -29.713753 30.250919
28.605204 -29.714254 30.445381
26.607446 -29.714756 30.639844
24.609687 -29.715257 30.834307
22.611929 -29.715758 31.028770
20.614171 -29.716260 31.223233
18.616413 -29.716761 31.417696
1.155284 110.143304 51.143539
-0.418562 111.148141 51.378086
-2.410864 111.154943 51.632452
-4.403166 111.161745 51.886817
-6.395468 111.168547 52.141182
-7.905993 112.324409 52.372731
-9.303999 113.748634 52.598950
-11.117008 114.183059 52.844824
-12.691796 115.185650 53.079416
-13.386173 116.900210 53.225644
-14.653752 118.378253 53.437036
-15.478555 120.038996 53.598091
-15.618388 121.982374 53.681276
-15.603165 123.989732 53.746834
-15.587942 125.997090 53.812391
-15.572719 128.004448 53.877949
-14.568693 129.594438 53.803341
-14.262373 131.478926 53.827635
-12.842838 132.893532 53.694127
-12.545418 134.781777 53.719683
-11.402147 136.312993 53.625337
-9.756349 137.166092 53.444086
-8.277905 138.434505 53.298148
-6.858370 139.849111 53.164641
-5.153662 140.556017 52.970960
-3.734127 141.970623 52.837453
-2.029419 142.677529 52.643772
-0.324711 143.384434 52.450091
1.366688 144.124368 52.259219
3.084706 144.798244 52.062729
4.947995 145.111606 51.835587
6.940297 145.104804 51.581221
8.932599 145.098003 51.326856
10.924901 145.091201 51.072491
12.917203 145.084399 50.818126
14.909505 145.077598 50.563761
16.901807 145.070796 50.309395
18.475653 144.065959 50.074848
20.405889 143.911126 49.823422
22.041802 143.054319 49.585936
23.793686 142.474110 49.342956
25.191692 141.049885 49.116737
25.886069 139.335325 48.970509
27.156634 137.858514 48.758778
27.978451 136.196539 48.598062
28.121269 134.254392 48.514537
28.106046 132.247035 48.448980
28.090823 130.239677 48.383422
28.075600 128.232319 48.317865
28.060377 126.224961 48.252307
26.768221 124.756589 48.367758
26.052325 123.044981 48.401523
25.327530 121.337129 48.436549
24.044273 119.865000 48.550739
22.844474 119.064436 48.676864
21.197768 118.213588 48.858306
20.477423 116.503858 48.892702
19.057888 115.089251 49.026209
17.353180 114.382346 49.219890
15.648472 113.675441 49.413571
14.228937 112.260834 49.547078
12.302502 112.104176 49.787545
10.310201 112.110978 50.041910
8.721195 111.116938 50.211177
7.124930 110.140915 50.381975
5.139888 110.129701 50.634809
3.147586 110.136502 50.889174
-0.912932 -31.773566 46.635268
-2.483612 -30.768739 46.869411
-4.472747 -30.761948 47.123372
-6.043427 -29.757122 47.357515
-7.679638 -28.908589 47.594761
-9.371314 -28.192344 47.834635
-11.062991 -27.476100 48.074508
-12.458774 -26.054138 48.300368
-13.854558 -24.632176 48.526228
-14.733926 -22.997128 48.693379
-15.942497 -21.497917 48.897956
-16.693692 -19.809982 49.050536
-18.030435 -18.363659 49.269684
-18.653458 -16.622837 49.407694
-19.414745 -14.939066 49.561421
-20.106900 -13.226770 49.707290
-20.598024 -11.431524 49.830304
-20.582826 -9.427357 49.895757
-21.479735 -7.799547 50.064903
-21.547509 -5.829616 50.139789
-20.908169 -4.088895 50.116769
-20.528309 -2.238649 50.130530
-20.513110 -0.234482 50.195984
-20.497911 1.769685 50.261437
-20.482712 3.773852 50.326890
-20.467513 5.778020 50.392343
-19.463512 7.364820 50.317631
-18.678302 9.043970 50.273934
-18.444311 10.955787 50.308373
-17.440309 12.542587 50.233661
-17.425110 14.546754 50.299114
-16.505134 16.169020 50.236313
-15.787045 17.876502 50.202130
-15.068956 19.583984 50.167946
-14.350867 21.291466 50.133763
-12.933589 22.703824 50.000468
-12.389903 24.484920 49.991007
-11.497410 26.118787 49.932102
-10.080132 27.531146 49.798807
-8.662854 28.943504 49.665512
-7.944765 30.650986 49.631329
-6.527486 32.063344 49.498034
-5.110208 33.475703 49.364739
-3.415518 34.199622 49.172908
-1.990478 35.592718 49.037975
-0.573199 37.005076 48.904680
0.357636 38.184597 48.825606
2.132516 38.709513 48.616854
2.948247 40.174682 48.562068
4.553057 41.121652 48.389202
5.970335 42.534010 48.255907
7.672787 43.238667 48.062439
9.291602 44.150883 47.886618
10.877441 45.144933 47.717756
12.866576 45.138142 47.463795
14.482595 46.057294 47.288564
16.185048 46.761951 47.095095
18.027389 47.119452 46.872109
19.613228 48.113502 46.703246
21.602363 48.106711 46.449285
23.591498 48.099920 46.195324
25.580633 48.093129 45.941363
27.255281 48.866787 45.753762
29.155608 49.080389 45.518540
30.937865 48.580183 45.274377
32.715423 48.068771 45.030436
34.704558 48.061980 44.776475
36.604679 47.842886 44.526730
38.264373 47.050363 44.288371
39.988032 46.410397 44.046983
41.405733 45.040709 43.820085
43.371385 44.977908 43.567236
44.767169 43.555946 43.341377
46.162952 42.133984 43.115517
47.688453 41.021403 42.883513
48.546784 39.705443 42.729775
49.942567 38.283481 42.503915
51.189441 36.800075 42.294984
51.174242 34.795908 42.229530
52.019032 33.146592 42.066310
52.711186 31.434296 41.920442
53.118809 29.604595 41.806920
54.095496 28.009704 41.628705
54.083493 26.006855 41.562888
54.068294 24.002688 41.497435
54.061073 22.001812 41.431075
55.032978 20.404948 41.253403
55.017779 18.400780 41.187950
54.573974 16.577525 41.183253
53.998579 14.809813 41.197209
53.983380 12.805646 41.131755
53.968181 10.801479 41.066302
53.799185 8.862228 41.022650
52.948980 7.210512 41.075561
51.944978 5.623712 41.150273
51.644918 3.739783 41.125199
50.227639 2.327425 41.258494
49.921776 0.445945 41.234243
48.917774 -1.140855 41.308955
48.772561 -3.090144 41.261932
47.355283 -4.502502 41.395227
45.938004 -5.914861 41.528522
45.890570 -7.905422 41.467638
44.501826 -9.329824 41.596888
43.783737 -11.037306 41.631072
42.366458 -12.449664 41.764367
40.949180 -13.862022 41.897662
39.531902 -15.274381 42.030957
38.813813 -16.981863 42.065140
37.201893 -17.911190 42.239506
35.694082 -19.098878 42.391904
34.276804 -20.511236 42.525199
32.574352 -21.215893 42.718667
31.157074 -22.628251 42.851962
29.675996 -23.882282 42.998720
28.037343 -24.745266 43.178726
26.334891 -25.449923 43.372195
24.917613 -26.862282 43.505490
23.215161 -27.566938 43.698959
21.512709 -28.271595 43.892427
19.810257 -28.976252 44.085896
18.171828 -29.839793 44.265855
16.585989 -30.833843 44.434718
14.596854 -30.827052 44.688679
12.607719 -30.820261 44.942640
11.012823 -31.791835 45.113413
9.032745 -31.807520 45.365463
7.043609 -31.800730 45.619424
5.054474 -31.793939 45.873385
3.065339 -31.787148 46.127346
1.076203 -31.780357 46.381307
107.655954 72.320682 73.409166
106.025449 73.264522 73.644172
104.012223 73.195891 73.879485
101.998997 73.127260 74.114799
100.368492 74.071100 74.349805
98.710336 74.941791 74.584834
96.724761 74.946309 74.820125
95.240339 76.276605 75.055014
93.505340 76.944011 75.290104
91.833246 77.777829 75.525144
90.305968 78.994750 75.760067
88.841594 80.378082 75.994940
87.512459 81.823101 76.216543
86.606436 83.461114 76.396629
85.435272 84.978189 76.602731
84.371277 86.544147 76.798317
83.358085 88.133278 76.988919
82.319492 89.710822 77.182013
82.261781 91.735779 77.278860
81.981727 93.659319 77.397524
81.165476 95.338281 77.568801
81.107765 97.363238 77.665648
82.054511 99.008463 77.626688
82.426161 100.871101 77.665483
83.098662 102.620003 77.663602
84.481420 104.100393 77.565692
85.864178 105.580784 77.467781
87.447701 106.611617 77.326116
89.021294 107.664685 77.186615
90.634187 108.629751 77.038549
92.608114 108.786383 76.811801
94.332306 109.502226 76.639479
96.194933 109.908082 76.436986
98.208159 109.976712 76.201673
100.059056 109.615908 75.966490
101.851890 109.101503 75.731353
103.799678 108.997019 75.496092
105.495621 108.226294 75.261033
107.269675 107.662205 75.025912
109.139353 107.351085 74.790713
110.769857 106.407245 74.555707
112.474671 105.659985 74.320641
114.030867 104.519565 74.085695
115.674043 103.609246 73.850678
116.444828 101.909545 73.683862
117.767037 101.053851 73.489277
119.007180 99.692088 73.281911
119.992021 98.558662 73.114923
121.456395 97.175330 72.880051
122.227180 95.475630 72.713235
122.997965 93.775929 72.546419
123.981929 92.173466 72.358685
124.039640 90.148509 72.261838
125.078233 88.570965 72.068744
125.135944 86.546007 71.971897
124.205827 84.894497 72.008609
124.246910 82.875825 71.914010
123.571084 81.128180 71.916341
122.898584 79.379278 71.918222
121.515825 77.898888 72.016132
120.133067 76.418497 72.114043
118.439442 75.634209 72.279703
116.842819 74.632709 72.424223
115.269226 73.579642 72.563724
113.256000 73.511011 72.799038
111.664940 72.497055 72.942345
109.669180 72.389312 73.173852
15.176807 -29.774889 79.820239
13.561801 -28.830521 80.053434
11.564074 -28.898623 80.286936
9.735007 -28.520543 80.520303
7.951341 -28.022357 80.753633
5.953614 -28.090460 80.987135
4.293208 -27.266196 81.220366
2.569483 -26.609439 81.453648
0.725876 -26.269825 81.687026
-0.889130 -25.325457 81.920220
-2.601692 -24.639168 82.153493
-4.325417 -23.982411 82.386775
-6.049142 -23.325654 82.620057
-7.731874 -22.560454 82.853306
-9.225966 -21.296215 83.086404
-10.679066 -19.923533 83.319469
-12.194170 -18.714879 83.552583
-13.855891 -17.894094 83.785815
-15.308991 -16.521412 84.018880
-16.762091 -15.148730 84.251944
-17.521603 -13.459679 84.416952
-18.974702 -12.086997 84.650017
-19.734214 -10.397946 84.815024
-20.493725 -8.708895 84.980032
-21.253236 -7.019844 85.145040
-22.280813 -5.453067 85.336351
-22.338080 -3.443699 85.432452
-23.376229 -1.881744 85.624800
-23.433496 0.127624 85.720902
-23.490762 2.136992 85.817003
-23.548029 4.146360 85.913104
-23.410562 6.082109 85.982877
-22.658106 7.785363 85.969500
-22.715373 9.794731 86.065601
-21.768183 11.424366 86.025896
-21.473399 13.300642 86.074399
-20.101287 14.769636 85.977242
-19.439432 16.507141 85.976115
-18.777577 18.244646 85.974988
-17.405464 19.713639 85.877831
-16.033351 21.182633 85.780674
-14.661238 22.651626 85.683517
-12.978258 23.424518 85.518610
-11.606145 24.893511 85.421453
-10.234032 26.362505 85.324296
-8.659887 27.379102 85.183109
-7.101793 28.431641 85.045420
-5.495959 29.377281 84.897326
-3.812979 30.150173 84.732419
-2.129999 30.923064 84.567513
-0.429783 31.657361 84.398850
1.235961 32.468847 84.237699
2.918942 33.241739 84.072793
4.684133 33.830542 83.889969
6.681860 33.898644 83.656467
8.278750 34.864312 83.510323
10.237681 35.019286 83.285276
12.235408 35.087388 83.051774
13.793503 36.139927 82.914085
15.791230 36.208030 82.680583
17.788957 36.276132 82.447081
19.786684 36.344235 82.213579
21.784411 36.412337 81.980077
23.782138 36.480440 81.746575
25.779865 36.548542 81.513073
27.619064 36.197265 81.279699
29.392598 35.672276 81.046377
31.390325 35.740379 80.812875
33.331488 35.658844 80.579418
35.003058 34.864113 80.346178
36.778938 34.345330 80.112855
38.615791 33.987847 79.879482
40.497013 33.747741 79.646073
42.228524 33.111581 79.412785
43.944463 32.434227 79.179510
45.668188 31.777469 78.946228
47.121288 30.404787 78.713163
48.845012 29.748030 78.479881
50.568737 29.091273 78.246599
52.021837 27.718591 78.013534
53.745562 27.061834 77.780252
54.505073 25.372783 77.615245
56.182083 24.592443 77.382000
57.681898 23.343344 77.148898
59.134998 21.970662 76.915834
60.443857 20.532187 76.696922
61.347609 18.908929 76.517761
62.107121 17.219878 76.352754
63.558304 15.846322 76.119877
63.626143 13.841776 76.022738
64.653720 12.274999 75.831427
64.710987 10.265631 75.735326
65.749136 8.703676 75.542978
65.806403 6.694308 75.446876
65.863669 4.684940 75.350775
65.920936 2.675572 75.254674
65.783469 0.739823 75.184901
65.031013 -0.963431 75.198278
65.088280 -2.972799 75.102177
64.141090 -4.602434 75.141882
63.193900 -6.232069 75.181588
62.474193 -7.947703 75.190536
61.812338 -9.685208 75.191663
60.440226 -11.154202 75.288820
59.778371 -12.891707 75.289947
58.406258 -14.360700 75.387104
56.825538 -15.362575 75.529725
55.542448 -16.674900 75.623306
54.689310 -18.340091 75.650295
53.006330 -19.112982 75.815202
51.614286 -20.537346 75.916702
49.951237 -21.354867 76.077265
48.268257 -22.127759 76.242172
46.896144 -23.596752 76.339329
45.213164 -24.369644 76.504235
43.384182 -24.815605 76.700961
41.826088 -25.868144 76.838651
39.828361 -25.936247 77.072152
38.170376 -26.765108 77.231612
36.272539 -27.056889 77.443344
34.714445 -28.109428 77.581033
32.716718 -28.177530 77.814535
30.718991 -28.245633 78.048037
29.133740 -29.237362 78.191645
27.163170 -29.366274 78.419228
25.165442 -29.434377 78.652730
23.167715 -29.502479 78.886232
21.169988 -29.570582 79.119734
19.172261 -29.638684 79.353236
17.174534 -29.706787 79.586738
-72.866457 -162.105597 118.321030
-74.472190 -161.166871 118.579402
-76.459798 -161.240805 118.821492
-78.447405 -161.314739 119.063583
-80.053139 -160.376013 119.321954
-82.040746 -160.449947 119.564045
-83.976093 -160.385295 119.808363
-85.634087 -159.585154 120.064507
-87.409280 -159.095803 120.315654
-89.227428 -158.720362 120.564969
-90.842466 -157.806310 120.822944
-92.820769 -157.855570 121.065431
-94.426502 -156.916843 121.323802
-96.032236 -155.978117 121.582174
-97.708839 -155.227325 121.837524
-99.425433 -154.582578 122.091169
-100.872000 -153.221773 122.356326
-102.837044 -153.235873 122.599379
-104.305187 -151.932281 122.863616
-106.021780 -151.287534 123.117261
-107.468348 -149.926729 123.382418
-109.184941 -149.281983 123.636063
-110.631509 -147.921178 123.901221
-112.078077 -146.560373 124.166378
-113.524644 -145.199568 124.431535
-114.971212 -143.838763 124.696693
-116.417780 -142.477958 124.961850
-117.864348 -141.117152 125.227007
-119.310915 -139.756347 125.492165
-120.757483 -138.395542 125.757322
-122.204051 -137.034737 126.022479
-123.293401 -135.509889 126.253608
-124.404245 -133.994911 126.486785
-125.369632 -132.413135 126.706106
-126.604439 -130.955084 126.951091
-127.445863 -129.316381 127.158603
-128.111692 -127.597041 127.349388
-129.522093 -126.219627 127.611101
-130.311886 -124.557215 127.813694
-131.065513 -122.878193 128.012843
-131.819139 -121.199172 128.211992
-132.694588 -119.576094 128.422745
-133.326392 -117.841129 128.610289
-133.790851 -116.029314 128.781892
-134.828967 -114.480937 129.008141
-134.894330 -112.485848 129.141726
-135.925230 -110.934158 129.367288
-135.983379 -108.935755 129.500186
-136.462268 -107.130567 129.673164
-137.079642 -105.388975 129.859333
-137.137791 -103.390572 129.992232
-137.337265 -101.457070 130.138593
-138.234054 -99.843793 130.351379
-138.292203 -97.845390 130.484277
-138.350351 -95.846987 130.617176
-138.408500 -93.848584 130.750074
-138.466648 -91.850181 130.882973
-138.524796 -89.851778 131.015871
-138.582945 -87.853376 131.148769
-138.059633 -86.072860 131.195783
-137.695233 -84.232797 131.266268
-137.753381 -82.234394 131.399167
-137.516340 -80.346606 131.488464
-136.865669 -78.613816 131.516665
-136.923817 -76.615413 131.649564
-136.263105 -74.886385 131.676282
-136.036105 -72.994835 131.767063
-135.090245 -71.372659 131.751663
-135.009870 -69.426164 131.864101
-134.202533 -67.752080 131.869162
-133.701086 -65.963372 131.919405
-133.046694 -64.231976 131.947057
-132.368960 -62.509326 131.971261
-132.427109 -60.510923 132.104159
-133.853430 -59.140821 132.367388
-134.607057 -57.461799 132.566537
-135.541455 -55.865793 132.782905
-136.579570 -54.317416 133.009154
-137.560878 -52.742951 133.229991
-138.314504 -51.063930 133.429140
-139.068130 -49.384909 133.628289
-139.821757 -47.705887 133.827437
-140.790180 -46.125506 134.047047
-141.828295 -44.577129 134.273296
-142.082636 -42.668823 134.424883
-142.924559 -41.030349 134.632443
-143.589889 -39.310780 134.823181
-144.020822 -37.483569 134.991590
-145.058938 -35.935192 135.217839
-145.157827 -33.955499 135.354618
-146.155201 -32.388413 135.576986
-146.213350 -30.390010 135.709884
-147.251465 -28.841633 135.936133
-147.309613 -26.843230 136.069031
-147.540077 -24.923959 136.218344
-148.405877 -23.296450 136.428179
-148.464026 -21.298047 136.561077
-148.522174 -19.299645 136.693975
-148.580322 -17.301242 136.826874
-149.618438 -15.752865 137.053122
-149.676586 -13.754462 137.186021
-149.734734 -11.756059 137.318919
-149.792883 -9.757656 137.451818
-149.851031 -7.759254 137.584716
-149.909179 -5.760851 137.717614
-149.967328 -3.762448 137.850513
-150.025476 -1.764045 137.983411
-149.751488 0.109898 138.067251
-149.137764 1.856533 138.100910
-149.195912 3.854936 138.233808
-149.254061 5.853339 138.366707
-149.263744 7.833581 138.492447
-148.366349 9.473917 138.484206
-148.424497 11.472320 138.617104
-148.010509 13.293802 138.680265
-147.536785 15.092899 138.734603
-147.411666 17.022627 138.840432
-146.649073 18.713477 138.852102
-146.102882 20.485419 138.895736
-145.761361 22.334056 138.969601
-145.504039 24.214244 139.055902
-144.849647 25.945640 139.083554
-143.927788 27.576810 139.071700
-142.981928 29.198985 139.056300
-142.886470 31.139828 139.166510
-142.094216 32.819564 139.173799
-141.148356 34.441740 139.158399
-140.213353 36.067984 139.144603
-139.558961 37.799380 139.172255
-138.904569 39.530776 139.199907
-138.250176 41.262172 139.227559
-137.423062 42.928845 139.229699
-136.231451 44.458932 139.178001
-135.531341 46.173196 139.198900
-134.212725 47.655691 139.128442
-133.558333 49.387087 139.156094
-132.194000 50.852450 139.078884
-131.539607 52.583846 139.106536
-130.175274 54.049210 139.029325
-129.520882 55.780606 139.056977
-128.156548 57.245969 138.979766
-126.792215 58.711332 138.902556
-126.014589 60.396550 138.912005
-124.773489 61.908092 138.852997
-123.409156 63.373455 138.775787
-122.044822 64.838819 138.698576
-120.680488 66.304182 138.621366
-119.316155 67.769545 138.544155
-117.951821 69.234908 138.466945
-116.587488 70.700272 138.389734
-115.223154 72.165635 138.312523
-113.582343 73.013775 138.162174
-112.183420 74.401918 138.075813
-110.819086 75.867281 137.998602
-109.379185 77.163943 137.901401
-107.779352 78.103564 137.761892
-106.415018 79.568928 137.684681
-105.050685 81.034291 137.607471
-103.375283 81.805211 137.447971
-102.010950 83.270574 137.370760
-100.335549 84.041494 137.211260
-98.971215 85.506857 137.134050
-97.437569 86.594238 137.012049
-95.931481 87.743140 136.897339
-94.567147 89.208503 136.820129
-92.891746 89.979423 136.660629
-91.246803 90.818339 136.509186
-89.852012 92.215706 136.423918
-88.176611 92.986626 136.264418
-86.603729 93.986415 136.132038
-85.136876 95.222909 136.027708
-83.508346 96.098466 135.880607
-81.786074 96.764748 135.708708
-80.110673 97.535668 135.549208
-78.435272 98.306588 135.389708
-76.877664 99.340476 135.261369
-75.329973 100.396501 135.135653
-73.720136 101.313791 134.993497
-72.044735 102.084710 134.833997
-70.369334 102.855630 134.674497
-68.699291 103.638511 134.516415
-67.018532 104.397469 134.355497
-65.343131 105.168389 134.195997
-63.616301 105.824496 134.022892
-61.992329 106.710229 133.876997
-60.316928 107.481148 133.717498
-58.533310 108.010480 133.529370
-56.966126 109.022988 133.398498
-54.998012 109.140439 133.161564
-53.450320 110.196465 133.035848
-51.462713 110.270399 132.793757
-49.915021 111.326424 132.668041
-47.966985 111.488699 132.436419
-46.379723 112.456383 132.300235
-44.616183 113.030539 132.117419
-42.844424 113.586342 131.932428
-40.954314 113.877935 131.716130
-39.309125 114.716302 131.564622
-37.321518 114.790235 131.322531
-35.773826 115.846261 131.196816
-33.786219 115.920195 130.954725
-32.238527 116.976220 130.829009
-30.250920 117.050154 130.586918
-28.263313 117.124088 130.344828
-26.617903 117.961962 130.193262
-24.728014 118.254047 129.977021
-22.740406 118.327981 129.734931
-20.969565 118.885834 129.550183
-19.205108 119.457940 129.367124
-17.217500 119.531874 129.125034
-15.229893 119.605808 128.882943
-13.334758 119.886182 128.665315
-11.694594 120.735767 128.515137
-9.706987 120.809701 128.273046
-7.719379 120.883634 128.030955
-5.731772 120.957568 127.788865
-3.744165 121.031502 127.546774
-2.196473 122.087528 127.421058
-0.208866 122.161461 127.178968
1.778742 122.235395 126.936877
3.766349 122.309329 126.694786
5.753956 122.383263 126.452696
7.741564 122.457197 126.210605
9.729171 122.531131 125.968514
11.716778 122.605064 125.726424
13.704386 122.678998 125.484333
15.691993 122.752932 125.242243
17.679600 122.826866 125.000152
19.667208 122.900800 124.758061
21.654815 122.974734 124.515971
23.642423 123.048667 124.273880
25.483658 122.734450 124.025549
27.235763 122.183875 123.773418
29.223371 122.257809 123.531327
31.210978 122.331743 123.289237
33.198586 122.405677 123.047146
35.146727 122.374954 122.803373
36.791926 121.540884 122.546684
38.779534 121.614818 122.304593
40.767141 121.688752 122.062503
42.754749 121.762686 121.820412
44.360482 120.823960 121.562041
46.348089 120.897893 121.319950
48.335697 120.971827 121.077860
49.959575 120.081218 120.820262
51.929038 120.107035 120.577397
53.916645 120.180969 120.335307
55.649406 119.579096 120.082351
57.509986 119.316176 119.834845
59.352618 119.005662 119.586573
61.103327 118.451384 119.334383
63.055830 118.432228 119.090796
64.696668 117.586592 118.833921
66.684275 117.660526 118.591830
68.290009 116.721800 118.333459
70.277616 116.795733 118.091368
71.908822 115.924556 117.834083
73.870957 115.930941 117.590906
75.476691 114.992215 117.332535
77.328628 114.706375 117.084660
79.070032 114.127423 116.832073
80.761814 113.416883 116.577370
82.663373 113.262630 116.331610
84.269106 112.323904 116.073239
85.911594 111.482644 115.816435
87.862447 111.459112 115.572777
89.468181 110.520386 115.314406
91.073914 109.581660 115.056034
93.047993 109.619717 114.813367
94.667255 108.716867 114.555572
96.272989 107.778141 114.297201
97.927747 106.969419 114.040919
99.644340 106.324673 113.787274
101.360934 105.679927 113.533629
103.077527 105.035180 113.279984
104.683531 104.097170 113.021624
106.289264 103.158444 112.763253
107.957281 102.384882 112.507537
109.673874 101.740136 112.253892
111.390468 101.095390 112.000247
112.837035 99.734585 111.735090
114.553629 99.089838 111.481445
116.270222 98.445092 111.227800
117.911273 97.600021 110.970934
119.433383 96.439541 110.708997
121.122740 95.722569 110.454191
122.596544 94.433989 110.190195
124.313137 93.789243 109.936550
125.759705 92.428438 109.671393
127.476298 91.783691 109.417748
128.922866 90.422886 109.152590
130.369434 89.062081 108.887433
131.816002 87.701276 108.622276
133.262569 86.340471 108.357118
134.810595 85.248714 108.096287
136.425730 84.334920 107.838316
137.872298 82.974115 107.573159
139.318866 81.613310 107.308001
140.765434 80.252504 107.042844
142.212001 78.891699 106.777687
143.928595 78.246953 106.524042
145.375162 76.886148 106.258885
146.821730 75.525343 105.993727
148.268298 74.164538 105.728570
149.714866 72.803733 105.463413
151.161433 71.442928 105.198255
151.915060 69.763906 104.999107
153.361628 68.403101 104.733949
154.808195 67.042296 104.468792
155.866307 65.503102 104.240639
157.008389 64.002469 104.004486
157.942538 62.406348 103.788141
159.208584 60.962643 103.540180
160.018768 59.309594 103.335644
161.408778 57.922816 103.075874
162.162404 56.243795 102.876726
163.608972 54.882990 102.611568
164.362599 53.203968 102.412420
165.209345 51.567710 102.204400
166.247460 50.019333 101.978152
167.285576 48.470956 101.751903
168.070046 46.806099 101.549816
168.823672 45.127077 101.350668
169.577299 43.448056 101.151519
170.458070 41.827423 100.940259
171.084552 40.090013 100.753222
171.838178 38.410992 100.554073
172.592449 36.732266 100.354863
173.630564 35.183889 100.128614
173.688713 33.185486 99.995716
174.726828 31.637109 99.769467
174.913369 29.697668 99.624338
175.823092 28.090330 99.410320
175.881240 26.091927 99.277422
176.919355 24.543550 99.051173
176.977504 22.545147 98.918274
177.295619 20.666128 98.760612
178.073768 18.998367 98.559127
178.131916 16.999965 98.426229
178.190064 15.001562 98.293330
178.248213 13.003159 98.160432
179.286328 11.454782 97.934183
179.344476 9.456379 97.801285
179.402625 7.457976 97.668387
179.460773 5.459574 97.535488
179.518921 3.461171 97.402590
179.577070 1.462768 97.269691
179.635218 -0.535635 97.136793
179.693367 -2.534038 97.003895
179.329576 -4.374330 96.933319
178.805655 -6.154616 96.886396
178.863803 -8.153019 96.753497
178.921951 -10.151422 96.620599
178.841832 -12.098012 96.508123
178.034239 -13.772000 96.503100
178.092388 -15.770403 96.370202
177.588597 -17.558234 96.320305
177.204675 -19.390982 96.252703
176.989755 -21.287059 96.160138
176.316963 -23.011560 96.135204
175.680970 -24.749851 96.104834
175.429251 -26.632139 96.017705
174.483391 -28.254314 96.033105
174.427736 -30.210072 95.917016
173.595679 -31.874893 95.915606
173.118951 -33.672864 95.861712
172.464559 -35.404260 95.834060
171.762106 -37.117647 95.813507
170.816246 -38.739822 95.828907
169.870385 -40.361998 95.844306
169.137049 -42.063812 95.828315
168.482657 -43.795208 95.800663
167.828265 -45.526604 95.773011
167.090953 -47.226928 95.757607
165.809540 -48.723363 95.822569
165.155147 -50.454760 95.794917
163.790814 -51.920123 95.872128
162.426480 -53.385486 95.949338
161.772088 -55.116882 95.921686
160.411781 -56.583754 95.998302
159.753363 -58.313642 95.971245
159.098971 -60.045038 95.943593
157.734637 -61.510401 96.020804
156.370303 -62.975764 96.098014
155.005970 -64.441128 96.175225
154.351578 -66.172524 96.147573
152.987244 -67.637887 96.224783
151.622911 -69.103250 96.301994
150.258577 -70.568614 96.379204
148.894244 -72.033977 96.456415
147.324243 -73.040198 96.588032
145.854509 -74.270260 96.693125
144.490176 -75.735623 96.770336
143.125842 -77.200987 96.847547
141.761509 -78.666350 96.924757
140.397175 -80.131713 97.001968
138.721774 -80.902633 97.161468
137.357440 -82.367996 97.238678
135.993107 -83.833360 97.315889
134.628773 -85.298723 97.393099
133.264440 -86.764086 97.470310
131.619385 -87.602752 97.621782
130.224705 -89.000369 97.707020
128.549304 -89.771289 97.866520
127.184971 -91.236652 97.943731
125.509570 -92.007572 98.103231
124.145236 -93.472935 98.180441
122.469835 -94.243855 98.339941
120.794434 -95.014775 98.499441
119.237853 -96.050955 98.627509
117.754699 -97.251058 98.736152
116.142470 -98.163006 98.878940
114.594779 -99.219031 99.004656
113.039564 -100.258261 99.132362
111.364163 -101.029180 99.291862
109.688762 -101.800100 99.451362
108.013361 -102.571020 99.610862
106.416406 -103.517066 99.749610
104.868714 -104.573092 99.875326
103.298225 -105.578222 100.007073
101.622824 -106.349142 100.166573
99.947423 -107.120062 100.326073
98.238032 -107.815102 100.494564
96.596621 -108.661901 100.645073
94.921220 -109.432821 100.804573
93.155042 -110.001086 100.988087
91.570418 -110.974661 101.123573
89.895017 -111.745580 101.283073
88.072052 -112.187071 101.481609
86.524360 -113.243096 101.607325
84.557746 -113.363896 101.843862
82.989062 -114.373056 101.975131
81.206944 -114.905735 102.162862
79.453763 -115.503015 102.342938
77.856142 -116.447575 102.481862
75.918464 -116.632974 102.710744
74.194272 -117.294971 102.883151
72.383165 -117.762933 103.078550
70.532402 -118.142366 103.284440
68.847866 -118.892892 103.446357
66.870533 -118.989762 103.685730
65.312567 -120.022852 103.814163
63.324960 -120.096785 104.056254
61.777269 -121.152811 104.181970
59.789661 -121.226745 104.424060
57.802054 -121.300678 104.666151
56.195992 -122.226393 104.807308
54.266755 -122.430638 105.033958
52.279148 -122.504571 105.276048
50.547653 -123.150265 105.450387
48.743849 -123.634531 105.643855
46.756242 -123.708464 105.885945
44.768634 -123.782398 106.128036
42.912847 -124.150614 106.335255
41.233335 -124.912357 106.495842
39.245728 -124.986291 106.737933
37.258121 -125.060225 106.980024
35.270513 -125.134159 107.222114
33.291571 -125.227438 107.461913
31.735214 -126.264118 107.589921
29.747607 -126.338052 107.832011
27.760000 -126.411986 108.074102
25.772392 -126.485920 108.316193
23.784785 -126.559854 108.558283
21.797178 -126.633787 108.800374
19.809570 -126.707721 109.042464
17.821963 -126.781655 109.284555
15.834356 -126.855589 109.526646
13.846748 -126.929523 109.768736
11.859141 -127.003457 110.010827
9.871534 -127.077390 110.252918
7.883926 -127.151324 110.495008
5.896319 -127.225258 110.737099
4.089239 -126.820466 110.986886
2.302978 -126.360466 111.237561
0.315371 -126.434400 111.479652
-1.672237 -126.508333 111.721742
-3.659844 -126.582267 111.963833
-5.647452 -126.656201 112.205923
-7.549108 -126.922016 112.425277
-8.298805 -128.617699 112.411702
-9.567834 -130.118775 112.474835
-10.222226 -131.850171 112.447183
-11.586559 -133.315535 112.524394
-12.950893 -134.780898 112.601604
-14.315226 -136.246261 112.678815
-15.679560 -137.711625 112.756026
-16.927846 -139.220474 112.816095
-17.698286 -140.908384 112.805584
-19.169115 -142.136001 112.910967
-20.738020 -143.144667 113.042295
-22.102354 -144.610030 113.119505
-23.466687 -146.075394 113.196716
-25.142088 -146.846313 113.356216
-26.506422 -148.311677 113.433426
-28.015348 -149.454245 113.548887
-29.563039 -150.510270 113.674603
-31.221557 -151.318880 113.829637
-32.896959 -152.089799 113.989137
-34.572360 -152.860719 114.148637
-36.193721 -153.752280 114.293841
-37.741412 -154.808305 114.419557
-39.598563 -155.173478 114.627137
-41.273964 -155.944398 114.786637
-42.824403 -156.994290 114.913079
-44.624766 -157.486237 115.105637
-46.359701 -158.124249 115.280886
-47.975568 -159.028077 115.424636
-49.895000 -159.254208 115.648692
-51.882608 -159.328142 115.890783
-53.430299 -160.384167 116.016499
-55.417906 -160.458101 116.258589
-57.405514 -160.532035 116.500680
-58.961177 -161.570264 116.628504
-60.940813 -161.661994 116.868486
-62.928420 -161.735928 117.110577
-64.916027 -161.809862 117.352668
-66.903635 -161.883796 117.594758
-68.891242 -161.957730 117.836849
-70.878849 -162.031663 118.078939
2.768095 -108.206249 133.861171
1.144050 -107.291041 134.066438
-0.844373 -107.395009 134.262823
-2.832797 -107.498978 134.459208
-4.821221 -107.602947 134.655593
-6.809645 -107.706915 134.851978
-8.433689 -106.791707 135.057245
-10.422113 -106.895675 135.253630
-12.410537 -106.999644 135.450015
-14.095241 -106.254101 135.653803
-16.023005 -106.188404 135.851667
-18.011429 -106.292373 136.048052
-19.802238 -105.843607 136.249254
-21.623897 -105.481133 136.449704
-23.521017 -105.329722 136.648315
-25.236366 -104.669893 136.851356
-27.224789 -104.773861 137.047741
-28.848834 -103.858653 137.253007
-30.837258 -103.962622 137.449393
-32.461302 -103.047413 137.654659
-34.419701 -103.067401 137.851776
-36.073770 -102.236173 138.056311
-38.062194 -102.340142 138.252696
-39.686238 -101.424934 138.457963
-41.599605 -101.318964 138.656177
-43.298707 -100.613694 138.859615
-45.060729 -100.084413 139.061518
-46.791291 -99.467137 139.264188
-48.535219 -98.887246 139.466533
-50.252415 -98.232585 139.669529
-51.982978 -97.615309 139.872199
-53.771732 -97.160797 140.073451
-55.444102 -96.380758 140.277540
-57.174664 -95.763482 140.480210
-58.905226 -95.146206 140.682881
-60.632289 -94.519141 140.885636
-62.256333 -93.603932 141.090903
-63.880377 -92.688724 141.296170
-65.569820 -91.956435 141.499842
-67.300382 -91.339160 141.702513
-69.030944 -90.721884 141.905183
-70.503851 -89.383941 142.114134
-72.234413 -88.766665 142.316804
-73.964975 -88.149389 142.519474
-75.437882 -86.811446 142.728425
-77.168445 -86.194171 142.931095
-78.641351 -84.856228 143.140046
-80.371914 -84.238952 143.342716
-81.844821 -82.901009 143.551667
-83.575383 -82.283733 143.754337
-85.048290 -80.945791 143.963287
-86.521197 -79.607848 144.172238
-87.994104 -78.269905 144.381188
-89.500707 -77.026213 144.589318
-91.197573 -76.314686 144.792809
-92.670480 -74.976744 145.001760
-94.143387 -73.638801 145.210710
-95.616293 -72.300858 145.419661
-97.089200 -70.962915 145.628611
-98.562107 -69.624973 145.837562
-100.035014 -68.287030 146.046513
-101.507921 -66.949087 146.255463
-102.291941 -65.282195 146.409518
-103.764848 -63.944252 146.618469
-105.237755 -62.606309 146.827419
-106.071929 -60.963366 146.985471
-107.494682 -59.601474 147.190425
-108.278702 -57.934582 147.344480
-109.751609 -56.596639 147.553430
-110.535629 -54.929747 147.707485
-112.008536 -53.591804 147.916436
-112.792556 -51.924912 148.070491
-113.576576 -50.258020 148.224546
-115.049483 -48.920077 148.433497
-115.833503 -47.253185 148.587552
-116.760072 -45.654361 148.752966
-117.828886 -44.123460 148.929715
-118.185563 -42.252508 149.049717
-118.992282 -40.596454 149.205581
-120.061096 -39.065554 149.382330
-120.537624 -37.251831 149.511882
-121.224491 -35.538548 149.658195
-121.416777 -33.589097 149.765096
-122.387887 -32.011542 149.934060
-122.984817 -30.255313 150.073207
-123.551282 -28.484536 150.209925
-123.645863 -26.488431 150.309041
-124.647990 -24.925686 150.480476
-124.809259 -22.961425 150.584906
-124.903840 -20.965320 150.684021
-125.622276 -19.267111 150.832850
-126.067235 -17.438314 150.959887
-126.161816 -15.442208 151.059002
-126.256398 -13.446103 151.158118
-126.350979 -11.449998 151.257233
-126.445560 -9.453892 151.356349
-126.540141 -7.457787 151.455464
-126.634722 -5.461682 151.554580
-126.729303 -3.465576 151.653696
-125.810490 -1.830749 151.634139
-125.905071 0.165356 151.733254
-125.999652 2.161462 151.832370
-125.315465 3.879934 151.840288
-125.175420 5.792395 151.911928
-125.270001 7.788500 152.011044
-124.351188 9.423327 151.991487
-124.258336 11.352612 152.068653
-123.526956 13.054260 152.071046
-123.621537 15.050365 152.170161
-122.702724 16.685193 152.150604
-121.783911 18.320020 152.131047
-121.862059 20.310267 152.228238
-120.959679 21.950953 152.210606
-120.040866 23.585780 152.191049
-119.994346 25.531583 152.273641
-119.216634 27.216713 152.270608
-118.032626 28.756998 152.219995
-117.379007 30.486368 152.231494
-116.460194 32.121195 152.211937
-115.448334 33.722852 152.181484
-114.622568 35.390850 152.172823
-113.486614 36.948267 152.127838
-112.784941 38.660505 152.133709
-111.524894 40.173682 152.074192
-110.902323 41.914120 152.089326
-109.563174 43.399097 152.020546
-108.224025 44.884073 151.951766
-106.884876 46.369050 151.882986
-106.258668 48.108192 151.897695
-104.923156 49.594465 151.829341
-103.584007 51.079441 151.760561
-102.244858 52.564418 151.691781
-100.905709 54.049394 151.623001
-99.566560 55.534371 151.554221
-98.227410 57.019347 151.485441
-96.888261 58.504324 151.416661
-95.224605 59.299073 151.284104
-93.885456 60.784049 151.215324
-92.546307 62.269026 151.146544
-91.207158 63.754002 151.077764
-89.745629 64.978677 150.984932
-88.204352 66.033728 150.876427
-86.686627 67.138872 150.772551
-85.201547 68.313453 150.675090
-83.627625 69.299067 150.560169
-82.198741 70.593179 150.473753
-80.568623 71.459262 150.347788
-79.039121 72.539360 150.241597
-77.532279 73.667653 150.139859
-75.980119 74.699555 150.029215
-74.450618 75.779652 149.923024
-72.865817 76.742128 149.805965
-71.202161 77.536877 149.673408
-69.538505 78.331626 149.540851
-67.874848 79.126375 149.408294
-66.344190 80.204011 149.301876
-64.814689 81.284109 149.195685
-63.208386 82.200850 149.074401
-61.296764 82.468175 148.893110
-59.767262 83.548272 148.786919
-58.217417 84.585097 148.676730
-56.249337 84.732338 148.484343
-54.719836 85.812436 148.378152
-53.190335 86.892533 148.271961
-51.238284 87.073866 148.082725
-49.672410 88.076599 147.969385
-47.910971 88.663364 147.817611
-46.154485 89.260665 147.666810
-44.259151 89.562635 147.488720
-42.636560 90.444731 147.364234
-40.931838 91.152133 147.223606
-39.118635 91.628797 147.061658
-37.280018 92.051404 146.894715
-35.600710 92.812863 146.759082
-33.628197 92.950674 146.565824
-32.082785 93.996930 146.456506
-30.094361 94.100898 146.260121
-28.564860 95.180996 146.153930
-26.576436 95.284964 145.957545
-24.588013 95.388933 145.761160
-22.997244 96.338714 145.642928
-21.070088 96.572999 145.458584
-19.081664 96.676967 145.262199
-17.357260 97.342506 145.117703
-15.563739 97.861033 144.959623
-13.575315 97.965002 144.763238
-11.586891 98.068970 144.566853
-9.598467 98.172939 144.370468
-7.740948 98.555342 144.199810
-6.080542 99.357005 144.067892
-4.092118 99.460974 143.871507
-2.103694 99.564942 143.675122
-0.115271 99.668911 143.478736
1.873153 99.772879 143.282351
3.861577 99.876848 143.085966
5.850001 99.980816 142.889581
7.838425 100.084785 142.693196
9.826849 100.188753 142.496811
11.815273 100.292722 142.300426
13.803696 100.396690 142.104041
15.792120 100.500659 141.907655
17.780544 100.604627 141.711270
19.511210 99.987640 141.508603
21.393012 99.793388 141.309619
23.381436 99.897356 141.113234
25.369860 100.001325 140.916848
27.358284 100.105293 140.720463
29.194641 99.783929 140.520372
30.970752 99.294053 140.318812
32.959176 99.398022 140.122426
34.901638 99.373435 139.924921
36.571644 98.586782 139.720775
38.560068 98.690751 139.524390
40.548492 98.794719 139.328004
42.172536 97.879511 139.122738
44.160960 97.983479 138.926353
46.057977 97.831780 138.727740
47.773428 97.172240 138.524701
49.761852 97.276208 138.328316
51.385897 96.361000 138.123049
53.237881 96.083344 137.923338
54.998365 95.549760 137.721397
56.699005 94.848792 137.517998
58.610833 94.738520 137.319746
60.417785 94.334907 137.118937
62.223301 93.927280 136.918094
63.878909 93.100356 136.713597
65.609471 92.483080 136.510926
67.459814 92.200832 136.311175
69.083858 91.285624 136.105909
71.058813 91.351919 135.909195
72.696326 90.474384 135.704257
74.320371 89.559176 135.498990
76.250499 89.500091 135.301184
77.932839 88.747936 135.097339
79.556883 87.832727 134.892072
81.184531 86.927597 134.686893
82.915093 86.310321 134.484223
84.645655 85.693045 134.281552
86.376217 85.075769 134.078882
87.849124 83.737827 133.869932
89.579686 83.120551 133.667261
91.289573 82.445446 133.464087
92.913618 81.530237 133.258820
94.537662 80.615029 133.053554
96.244280 79.930780 132.850300
97.785751 78.784612 132.643020
99.447749 77.975562 132.438679
101.033839 76.954196 132.232487
102.651218 76.020343 132.027058
104.281928 75.123779 131.821954
105.854687 74.065124 131.615437
107.327594 72.727182 131.406487
108.800501 71.389239 131.197536
110.413726 70.443768 130.992006
112.003970 69.434020 130.785915
113.476877 68.096077 130.576965
114.949784 66.758135 130.368014
116.422691 65.420192 130.159064
117.895598 64.082249 129.950113
119.368505 62.744306 129.741162
120.841412 61.406364 129.532212
122.314319 60.068421 129.323261
123.098339 58.401529 129.169206
124.571246 57.063586 128.960256
126.044153 55.725643 128.751305
127.517060 54.387700 128.542355
128.301080 52.720808 128.388300
129.705118 51.349980 128.184837
130.558007 49.715973 128.025294
131.842747 48.288179 127.831338
132.814934 46.711138 127.662289
133.980375 45.226378 127.477839
135.049190 43.695477 127.301090
135.855881 42.039411 127.145228
137.186818 40.633676 126.947591
138.112808 39.034576 126.782222
138.350214 37.106670 126.671725
139.419028 35.575770 126.494976
140.464868 34.033899 126.320057
140.582423 32.048764 126.219111
141.651238 30.517864 126.042361
142.720052 28.986963 125.865612
142.814633 26.990858 125.766496
143.696081 25.370488 125.604677
143.978028 23.463852 125.490631
145.046843 21.932951 125.313882
145.141424 19.936846 125.214766
145.454388 18.045020 125.098248
146.304819 16.409840 124.938901
146.399400 14.413735 124.839785
146.493981 12.417629 124.740670
147.562796 10.886729 124.563920
147.657377 8.890624 124.464805
147.751958 6.894518 124.365689
147.846539 4.898413 124.266574
147.941120 2.902308 124.167458
148.035701 0.906202 124.068343
148.130282 -1.089903 123.969227
148.224864 -3.086009 123.870111
147.962448 -4.954843 123.812802
147.400631 -6.716941 123.790553
147.495213 -8.713047 123.691437
147.527890 -10.687083 123.599571
146.670981 -12.343979 123.611879
146.765562 -14.340085 123.512763
146.376755 -16.163861 123.470254
145.941330 -17.971018 123.433204
145.131613 -19.644738 123.439986
145.117098 -21.601950 123.353646
144.603049 -23.381077 123.325803
144.292865 -25.232883 123.274087
143.374052 -26.867710 123.293644
142.735335 -28.602393 123.280401
142.549820 -30.498643 123.214086
141.631007 -32.133471 123.233642
140.867622 -33.823709 123.234998
140.245051 -35.564147 123.219864
138.905902 -37.049124 123.288644
138.283331 -38.789562 123.273510
137.660760 -40.530001 123.258376
136.321611 -42.014977 123.327156
135.699040 -43.755416 123.312021
134.359891 -45.240392 123.380801
133.737320 -46.980831 123.365667
132.442875 -48.481745 123.429212
131.775599 -50.206246 123.419313
130.436450 -51.691222 123.488093
129.097301 -53.176199 123.556873
128.474730 -54.916638 123.541739
127.135581 -56.401614 123.610519
125.796432 -57.886590 123.679299
124.457283 -59.371567 123.748078
123.118134 -60.856543 123.816858
121.778985 -62.341520 123.885638
120.439836 -63.826496 123.954418
119.100687 -65.311473 124.023198
117.761538 -66.796449 124.091978
116.097881 -67.591198 124.224535
114.758732 -69.076175 124.293315
113.419583 -70.561151 124.362095
112.080434 -72.046128 124.430875
110.416778 -72.840877 124.563432
109.077629 -74.325853 124.632212
107.413972 -75.120603 124.764769
106.074823 -76.605579 124.833549
104.411167 -77.400328 124.966106
103.072018 -78.885305 125.034886
101.408361 -79.680054 125.167443
99.744705 -80.474803 125.300000
98.081048 -81.269552 125.432557
96.528758 -82.301177 125.543226
95.078243 -83.549277 125.633894
93.469756 -84.461372 125.755608
91.940255 -85.541469 125.861799
90.410754 -86.621567 125.967990
88.748125 -87.418501 126.100345
87.084468 -88.213250 126.232902
85.420812 -89.007999 126.365459
83.833826 -89.965828 126.482947
82.093499 -90.597497 126.630573
80.429842 -91.392246 126.763130
78.786400 -92.229991 126.891714
77.102530 -92.981745 127.028244
75.268475 -93.414058 127.194290
73.738974 -94.494155 127.300480
72.111560 -95.365992 127.425914
70.221049 -95.678221 127.603056
68.691548 -96.758319 127.709247
66.703124 -96.862287 127.905632
65.132427 -97.854761 128.019919
63.185199 -98.046353 128.208208
61.655698 -99.126451 128.314399
59.816950 -99.548780 128.481367
58.137773 -100.310517 128.616975
56.165130 -100.448051 128.810258
54.619848 -101.494583 128.919551
52.631424 -101.598551 129.115936
50.849653 -102.142071 129.271706
49.113499 -102.782617 129.418512
47.125075 -102.886586 129.614897
45.209669 -103.145863 129.796931
43.607151 -104.070652 129.917473
41.618727 -104.174621 130.113858
39.630303 -104.278589 130.310243
38.100802 -105.358687 130.416434
36.112378 -105.462655 130.612819
34.123954 -105.566624 130.809204
32.135530 -105.670592 131.005589
30.147106 -105.774561 131.201974
28.614225 -106.847468 131.308829
26.629181 -106.958627 131.504550
24.640757 -107.062595 131.700935
22.652333 -107.166564 131.897320
20.663910 -107.270532 132.093705
18.675486 -107.374501 132.290090
16.687062 -107.478470 132.486476
14.698638 -107.582438 132.682861
12.710214 -107.686407 132.879246
10.721790 -107.790375 133.075631
8.733366 -107.894344 133.272016
6.744943 -107.998312 133.468401
4.756519 -108.102281 133.664786
