ply
format ascii 1.0
element vertex 1405
property float x
property float y
property float z
end_header
8.449824 -48.230211 -35.492048
6.893334 -47.197969 -35.314980
4.903483 -47.156969 -35.103120
2.913632 -47.115969 -34.891259
0.923781 -47.074969 -34.679399
-0.632708 -46.042727 -34.502332
-2.622559 -46.001727 -34.290471
-4.612410 -45.960727 -34.078611
-6.545965 -45.790958 -33.871270
-8.158751 -44.887485 -33.689683
-9.911871 -44.305003 -33.496829
-11.594824 -43.562026 -33.309609
-13.261581 -42.782002 -33.123688
-15.251432 -42.741001 -32.911828
-16.950116 -42.034006 -32.723344
-18.364410 -40.676518 -32.557693
-20.009589 -39.847138 -32.373505
-21.910751 -39.603276 -32.168766
-23.467240 -38.571035 -31.991698
-25.058447 -37.618205 -31.811844
-26.741400 -36.875227 -31.624623
-28.424353 -36.132250 -31.437402
-30.107306 -35.389272 -31.250182
-31.683048 -34.401068 -31.071569
-32.998365 -33.136318 -30.917485
-33.833998 -31.480184 -30.809921
-35.516951 -30.737206 -30.622700
-36.893471 -29.293315 -30.460082
-38.269991 -27.849424 -30.297464
-39.829555 -27.058029 -30.122803
-40.620163 -25.384226 -30.019822
-41.996683 -23.940335 -29.857204
-43.373202 -22.496444 -29.694585
-44.749722 -21.052553 -29.531967
-45.632380 -19.414871 -29.419617
-46.084161 -17.608114 -29.351123
-47.564901 -16.785788 -29.184485
-48.434333 -15.142916 -29.073481
-49.101552 -13.420697 -28.983059
-49.441632 -11.570108 -28.925934
-50.401576 -9.962754 -28.805717
-50.358418 -7.961783 -28.787601
-51.061128 -6.253490 -28.693567
-51.275205 -4.353458 -28.649268
-51.232047 -2.352488 -28.631151
-51.644184 -0.530175 -28.566693
-52.148833 1.255837 -28.492818
-51.248273 2.878611 -28.570080
-51.077277 4.823193 -28.566185
-51.034119 6.824163 -28.548068
-50.990961 8.825134 -28.529952
-50.374741 10.573329 -28.575584
-49.919405 12.392490 -28.603318
-48.892971 13.959742 -28.694583
-47.862610 15.525261 -28.786284
-47.819452 17.526231 -28.768168
-46.670316 19.039360 -28.873081
-45.762657 20.659003 -28.951133
-44.978245 21.882440 -29.020586
-43.475053 23.098767 -29.166481
-42.690095 24.772533 -29.230883
-41.661697 26.338919 -29.322366
-40.525003 27.791708 -29.426643
-38.842234 28.544083 -29.596879
-37.603896 30.017864 -29.711716
-36.387856 30.910284 -29.830779
-34.950301 32.296192 -29.967777
-33.499538 33.647975 -30.106565
-31.799253 34.355096 -30.279175
-30.300309 35.582398 -30.424494
-28.648205 36.413999 -30.590574
-27.210651 37.799907 -30.727572
-25.501465 38.484032 -30.901388
-23.901850 39.451243 -31.060353
-22.070170 39.818893 -31.250774
-20.632616 41.204801 -31.387772
-18.712770 41.344666 -31.590143
-17.113155 42.311877 -31.749108
-15.492135 43.223786 -31.910974
-13.523689 43.238088 -32.119933
-11.924075 44.205300 -32.278897
-10.075716 44.529858 -32.471579
-8.334609 45.131511 -32.649723
-6.372790 45.162935 -32.857783
-4.745143 46.057722 -33.020548
-2.755292 46.016722 -33.232408
-1.155677 46.983933 -33.391373
0.834174 46.942933 -33.603233
2.824025 46.901933 -33.815094
4.813876 46.860933 -34.026954
6.725419 47.022248 -34.228200
8.403342 47.787144 -34.397779
10.393193 47.746144 -34.609640
12.383044 47.705144 -34.821500
14.372895 47.664144 -35.033361
16.362746 47.623144 -35.245221
18.352597 47.582143 -35.457081
20.342449 47.541143 -35.668942
22.332300 47.500143 -35.880802
24.322151 47.459143 -36.092663
25.878640 46.426901 -36.269730
27.868491 46.385901 -36.481590
29.713224 46.012967 -36.681800
31.414832 45.312659 -36.870518
33.385563 45.227926 -37.080843
34.961172 44.239418 -37.259446
36.517661 43.207176 -37.436513
38.507512 43.166176 -37.648374
40.423808 42.956929 -37.854328
42.053853 42.092934 -38.037301
43.610342 41.060692 -38.214368
45.166831 40.028450 -38.391436
47.155619 39.985019 -38.603211
48.713172 38.955209 -38.780363
50.269661 37.922967 -38.957431
52.077091 37.706099 -39.151907
52.871697 36.033866 -39.255295
54.790119 35.829483 -39.461420
56.346608 34.797241 -39.638488
57.920556 33.804934 -39.816956
59.297076 32.361042 -39.979575
60.980029 31.618065 -40.166795
62.356549 30.174174 -40.329413
63.733069 28.730282 -40.492031
65.252182 27.612550 -40.666098
66.755205 26.528763 -40.838070
67.459760 24.821194 -40.932292
68.687726 23.899680 -41.073202
69.809933 22.355997 -41.209935
71.186452 20.912106 -41.372553
71.853672 19.189886 -41.462975
73.230191 17.745995 -41.625593
73.897411 16.023775 -41.716015
75.273930 14.579884 -41.878633
75.941149 12.857664 -41.969055
76.367282 11.040843 -42.034938
76.566287 9.134897 -42.077703
77.284068 7.432518 -42.173272
77.900725 5.690458 -42.258547
78.200855 3.824193 -42.311605
78.157697 1.823222 -42.329721
78.114539 -0.177748 -42.347838
78.071381 -2.178718 -42.365954
78.028223 -4.179689 -42.384070
77.985064 -6.180659 -42.402186
77.575009 -8.019793 -42.379489
76.913509 -9.748015 -42.328820
76.870351 -11.748986 -42.346936
76.049024 -13.406709 -42.278488
75.308139 -15.099915 -42.218989
74.567254 -16.793122 -42.159489
73.742000 -18.449113 -42.090604
73.698841 -20.450083 -42.108721
72.670444 -22.016469 -42.017238
71.327775 -22.853033 -41.884088
69.890220 -24.238941 -41.747090
68.971673 -25.473142 -41.663509
67.596876 -26.676174 -41.531104
66.419018 -27.585435 -41.416288
65.552712 -29.223319 -41.342836
63.964639 -29.951636 -41.182387
63.110952 -31.353409 -41.107598
61.510261 -32.317838 -40.948487
60.072706 -33.703746 -40.811489
58.635151 -35.089654 -40.674491
56.921658 -35.762649 -40.500091
55.208165 -36.435644 -40.325690
53.770610 -37.821553 -40.188692
52.057116 -38.494548 -40.014292
50.343623 -39.167543 -39.839891
48.714420 -40.058311 -39.676916
47.114806 -41.025522 -39.517951
45.203143 -41.186528 -39.316689
43.765588 -42.572436 -39.179691
41.925725 -42.918945 -38.988161
40.326111 -43.886156 -38.829196
38.625108 -44.591421 -38.656489
36.736645 -44.812367 -38.458371
34.922182 -45.224498 -38.270284
33.147179 -45.738578 -38.087546
31.219256 -45.857575 -37.884080
29.557713 -46.664790 -37.716721
27.567862 -46.623789 -37.504861
25.968247 -47.591001 -37.345896
23.978396 -47.550001 -37.134035
21.988545 -47.509000 -36.922175
19.998694 -47.468000 -36.710315
18.121046 -47.716888 -36.513663
16.409228 -48.394212 -36.339489
14.419377 -48.353211 -36.127629
12.429526 -48.312211 -35.915769
10.439675 -48.271211 -35.703908
6.032462 -48.161580 -36.036709
4.455596 -47.154198 -35.857759
2.460990 -47.144802 -35.645752
0.466384 -47.135405 -35.433745
-1.110482 -46.128023 -35.254795
-3.105087 -46.118627 -35.042788
-5.038621 -45.963330 -34.835614
-6.676559 -45.101849 -34.651831
-8.671165 -45.092452 -34.439824
-10.248031 -44.085071 -34.260874
-12.123957 -43.792148 -34.058258
-13.819503 -43.068293 -33.869917
-15.396369 -42.060911 -33.690967
-17.216420 -41.634500 -33.492773
-18.913907 -40.915284 -33.304278
-20.544707 -40.036752 -33.121060
-22.121574 -39.029370 -32.942110
-24.006369 -38.757636 -32.738792
-25.693045 -38.012592 -32.551153
-27.269912 -37.005210 -32.372203
-28.803445 -35.894307 -32.196682
-30.423644 -34.990447 -32.014303
-31.903034 -33.750193 -31.843066
-33.577377 -32.975684 -31.656403
-35.154243 -31.968303 -31.477453
-35.995258 -30.597304 -31.372552
-37.614642 -29.846003 -31.191990
-38.389995 -28.163631 -31.090533
-39.588221 -27.239315 -30.952750
-40.784732 -25.729959 -30.808513
-42.186833 -24.305061 -30.643393
-43.588934 -22.880163 -30.478273
-44.525336 -21.263952 -30.360456
-45.688285 -19.740808 -30.219628
-46.495488 -18.071521 -30.114935
-47.787635 -16.601454 -29.960983
-48.465640 -14.879091 -29.869414
-49.182134 -13.172540 -29.773935
-49.879384 -11.458083 -29.680411
-50.424057 -9.680947 -29.602384
-50.569030 -7.739611 -29.564958
-51.397398 -6.079018 -29.458116
-51.385663 -4.073305 -29.436607
-51.955927 -2.306681 -29.355982
-52.359004 -0.471376 -29.292338
-52.050414 1.408987 -29.303789
-51.343569 3.121183 -29.359456
-51.331834 5.126897 -29.337948
-51.320099 7.132610 -29.316440
-51.308364 9.138323 -29.294931
-50.568327 10.836504 -29.354284
-50.292930 12.730883 -29.362050
-49.289231 14.317729 -29.450676
-48.416511 15.959883 -29.524761
-47.699238 17.667676 -29.581586
-46.280541 19.079285 -29.716289
-45.563269 20.787078 -29.773115
-44.270733 22.251960 -29.893810
-43.427300 23.906480 -29.964643
-42.008603 25.318089 -30.099346
-40.589906 26.729698 -30.234049
-39.263971 28.180478 -30.358452
-38.166824 29.140674 -30.464116
-36.748127 30.552284 -30.598819
-35.329430 31.963893 -30.733522
-34.350007 33.024850 -30.825536
-32.619236 33.666443 -31.002128
-31.200539 35.078052 -31.136831
-29.584306 36.002258 -31.298049
-27.995739 36.994727 -31.455554
-26.370222 37.896027 -31.618018
-24.664413 38.599210 -31.791260
-22.958603 39.302393 -31.964502
-21.252794 40.005576 -32.137744
-19.834097 41.417186 -32.272446
-18.058298 41.947677 -32.455083
-16.422477 42.823552 -32.618930
-14.475125 42.930749 -32.824594
-12.886558 43.923219 -32.982099
-11.017936 44.224675 -33.177195
-9.303386 44.906291 -33.351610
-7.319204 44.922615 -33.562218
-5.720213 45.889364 -33.721122
-3.725608 45.879967 -33.933129
-2.137041 46.872437 -34.090633
-0.142435 46.863040 -34.302640
1.852170 46.853643 -34.514647
3.489878 47.724861 -34.678748
5.435343 47.836716 -34.884159
7.429948 47.827320 -35.096166
9.424554 47.817923 -35.308173
11.419159 47.808527 -35.520180
13.413765 47.799130 -35.732187
15.408370 47.789733 -35.944194
17.402976 47.780337 -36.156201
19.397581 47.770940 -36.368208
21.392187 47.761544 -36.580215
23.124645 47.125873 -36.771477
24.963659 46.744766 -36.971172
26.815006 46.393123 -37.171842
28.535131 45.727988 -37.362129
30.529736 45.718591 -37.574136
32.498241 45.646839 -37.784077
34.101208 44.701813 -37.965093
35.893216 44.208407 -38.161067
37.672680 43.685035 -38.356050
39.583577 43.475657 -38.561432
41.244152 42.668257 -38.747007
42.978551 42.037225 -38.938423
44.815623 41.651479 -39.137964
46.392490 40.644097 -39.316914
48.071014 39.879577 -39.503908
49.546222 38.629334 -39.674814
51.465989 38.441145 -39.880898
52.868090 37.016247 -40.046019
54.565577 36.297032 -40.234514
55.967678 34.872134 -40.399634
57.665166 34.152918 -40.588129
59.067267 32.728020 -40.753249
60.764754 32.008804 -40.941745
62.166856 30.583906 -41.106865
63.168967 29.579024 -41.224726
64.732387 28.558263 -41.402400
66.139357 27.381834 -41.565218
66.956329 25.716561 -41.670904
68.358430 24.291663 -41.836024
69.760532 22.866765 -42.001144
70.457781 21.152308 -42.094669
71.859882 19.727410 -42.259789
73.261983 18.302512 -42.424909
74.664085 16.877614 -42.590029
75.016776 15.021610 -42.648555
75.353731 13.159142 -42.705482
76.050981 11.444685 -42.799006
76.975193 9.823466 -42.915584
76.963458 7.817753 -42.937093
77.437877 6.011756 -43.007983
77.936799 4.215824 -43.081362
77.925064 2.210111 -43.102870
77.913329 0.204397 -43.124379
77.901594 -1.801316 -43.145887
77.889858 -3.807029 -43.167395
77.878123 -5.812743 -43.188904
76.942925 -7.428514 -43.107882
76.862689 -9.405302 -43.121785
76.209805 -11.140284 -43.072109
75.847255 -12.997862 -43.054667
74.843555 -14.584708 -42.966040
74.759413 -16.559847 -42.979510
73.828121 -18.177267 -42.898922
72.336332 -18.970823 -42.749442
71.824149 -20.765217 -42.715387
70.901787 -22.386409 -42.635791
69.483090 -23.798018 -42.501088
68.064393 -25.209627 -42.366385
67.157917 -26.450576 -42.284163
65.817115 -27.694838 -42.155837
65.551819 -29.442868 -42.147485
63.632542 -29.619337 -41.945589
62.812871 -31.283891 -41.877394
61.209460 -32.030313 -41.715521
59.503650 -32.733496 -41.542279
58.084953 -34.145105 -41.407577
56.602916 -35.400428 -41.264372
54.960447 -36.259898 -41.099632
53.541750 -37.671507 -40.964929
51.837215 -38.377836 -40.791858
50.248648 -39.370305 -40.634354
48.424321 -39.781056 -40.445203
47.005624 -41.192665 -40.310500
45.299814 -41.895848 -40.137258
43.488341 -42.338316 -39.949833
41.601082 -42.593788 -39.752236
39.905169 -43.321389 -39.580322
38.316602 -44.313858 -39.422817
36.321996 -44.304461 -39.210810
34.733429 -45.296931 -39.053306
32.738824 -45.287534 -38.841299
31.079112 -46.104461 -38.674245
29.155651 -46.270607 -38.471788
27.161046 -46.261210 -38.259781
25.572479 -47.253679 -38.102276
23.577873 -47.244283 -37.890269
21.688727 -47.495098 -37.692418
19.994700 -48.227356 -37.520758
18.000095 -48.217959 -37.308751
16.005489 -48.208562 -37.096744
14.010884 -48.199166 -36.884737
12.016278 -48.189769 -36.672730
10.021673 -48.180373 -36.460723
8.027067 -48.170976 -36.248716
-16.379681 -27.311856 64.111658
-17.905776 -26.221516 64.181009
-19.904253 -26.104844 64.230433
-21.704568 -25.579725 64.288216
-23.428825 -24.897833 64.349207
-25.365834 -24.654466 64.401224
-26.953396 -23.690821 64.467982
-28.951873 -23.574149 64.517406
-30.477968 -22.483809 64.586757
-32.354343 -22.115462 64.641331
-34.002540 -21.276797 64.705531
-35.681585 -20.501715 64.768430
-37.054731 -19.096115 64.844233
-38.674803 -18.199480 64.909619
-40.338425 -17.392607 64.973168
-41.668022 -15.897246 65.050808
-43.631493 -15.708422 65.101709
-44.272294 -14.032448 65.169285
-45.601892 -12.537086 65.246925
-46.452508 -10.875399 65.318852
-47.538117 -9.295312 65.393582
-48.867714 -7.799950 65.471222
-50.187818 -6.301292 65.548748
-50.803939 -4.558176 65.617880
-51.996401 -3.015195 65.693884
-51.878259 -1.017105 65.754259
-52.623821 0.681062 65.824934
-52.664409 2.624033 65.887201
-52.546268 4.622122 65.947576
-52.428126 6.620211 66.007951
-52.309984 8.618300 66.068326
-52.191842 10.616389 66.128701
-52.073700 12.614478 66.189076
-50.982000 14.141001 66.212281
-50.598031 16.010330 66.262507
-49.101355 17.340693 66.270250
-48.293090 19.004504 66.304277
-46.796415 20.334868 66.312020
-45.523498 21.773614 66.328306
-44.491475 23.329042 66.353790
-43.453720 24.331079 66.361672
-41.935946 25.600599 66.367012
-40.439270 26.930962 66.374755
-38.692007 27.538707 66.353950
-37.195332 28.869071 66.361694
-35.448068 29.476816 66.340889
-33.700804 30.084561 66.320084
-31.953540 30.692307 66.299279
-30.300997 31.573198 66.289266
-28.459012 31.907798 66.257670
-26.658430 32.361791 66.230791
-24.964484 33.123288 66.216060
-23.015864 33.150385 66.172316
-21.371773 34.055649 66.163265
-19.373297 33.938978 66.113841
-17.724840 34.831652 66.104293
-15.730730 34.727571 66.055366
-13.732254 34.610900 66.005942
-11.733777 34.494229 65.956518
-9.735301 34.377558 65.907094
-7.736825 34.260886 65.857670
-5.738348 34.144215 65.808246
-3.739872 34.027544 65.758822
-1.741395 33.910872 65.709398
-0.078606 33.102285 65.645813
1.783176 32.703860 65.590623
3.582660 32.177027 65.532805
5.307748 31.496848 65.471848
7.243926 31.251768 65.419796
8.832320 30.289836 65.353074
10.571169 29.638022 65.292698
12.234790 28.831149 65.229148
13.882987 27.992484 65.164948
15.409082 26.902143 65.095598
17.225653 26.410529 65.038500
18.555251 24.915167 64.960861
20.218872 24.108294 64.897311
21.548469 22.612933 64.819672
23.212090 21.806059 64.756122
24.541687 20.310698 64.678483
26.091750 19.269759 64.610143
26.811936 17.757412 64.545915
27.418564 16.010999 64.476897
29.028430 15.093327 64.411080
29.080391 13.246438 64.351586
30.295440 11.711300 64.275312
30.888975 9.960341 64.206450
31.508695 8.218474 64.137276
31.675125 6.319203 64.073508
32.579416 4.676154 64.000940
32.461275 2.678065 63.940565
32.343133 0.679976 63.880190
32.224991 -1.318114 63.819815
31.964275 -3.247143 63.764884
31.015149 -4.842725 63.736235
30.897007 -6.840814 63.675860
29.805307 -8.367337 63.652655
29.419624 -10.235836 63.602495
27.922949 -11.566199 63.594751
26.530205 -12.946905 63.583040
25.618008 -14.560374 63.552981
24.121333 -15.890737 63.545238
22.624658 -17.221101 63.537495
21.127983 -18.551464 63.529751
19.631308 -19.881827 63.522008
18.756282 -21.353123 63.495587
16.825190 -21.430766 63.537334
15.113715 -22.141716 63.554062
13.469625 -23.046981 63.563113
11.583398 -23.254002 63.599749
9.836134 -23.861747 63.620553
8.182968 -24.740839 63.630638
6.538878 -25.646104 63.639689
4.594343 -25.684983 63.682968
2.896311 -26.434697 63.698164
0.897834 -26.318026 63.747588
-0.746256 -27.223291 63.756639
-2.744732 -27.106620 63.806063
-4.643154 -27.278474 63.844088
-6.387299 -27.895213 63.864538
-8.385775 -27.778542 63.913962
-10.384252 -27.661870 63.963386
-12.382728 -27.545199 64.012810
-14.381205 -27.428528 64.062234
-14.758234 -29.676735 62.991112
-16.382186 -28.734791 63.058017
-18.384910 -28.806533 63.101590
-20.008861 -27.864589 63.168496
-22.011585 -27.936331 63.212069
-23.962354 -27.869028 63.258843
-25.638260 -27.066128 63.322548
-27.429736 -26.572518 63.379134
-28.895594 -25.207478 63.455778
-30.888887 -25.253982 63.499932
-32.512839 -24.312037 63.566838
-34.096667 -23.262713 63.636215
-35.760742 -22.428149 63.700649
-37.564049 -21.966202 63.756506
-39.029907 -20.601163 63.833150
-40.495765 -19.236123 63.909794
-42.229456 -18.587868 63.969940
-43.695315 -17.222828 64.046584
-45.161173 -15.857789 64.123228
-46.308345 -14.347247 64.197171
-47.396678 -12.809842 64.270616
-48.862536 -11.444802 64.347260
-49.473064 -9.689247 64.416656
-50.401828 -8.078988 64.488749
-50.598283 -6.134380 64.554636
-51.653189 -4.581713 64.627798
-51.723502 -2.579514 64.692616
-51.793815 -0.577314 64.757434
-51.864128 1.424885 64.822252
-51.934441 3.427085 64.887070
-52.004754 5.429285 64.951888
-51.061414 7.053533 64.981574
-51.109702 9.047520 65.045628
-50.188387 10.679981 65.076077
-49.245048 12.304229 65.105763
-48.443960 13.981518 65.140380
-47.358368 15.552726 65.165135
-46.427879 17.181766 65.195266
-45.061458 18.648264 65.210289
-43.695037 20.114763 65.225311
-42.221111 21.345612 65.230434
-40.644756 22.351940 65.226124
-39.278335 23.818438 65.241146
-37.594474 24.589118 65.226936
-36.005928 25.568725 65.221504
-34.452132 26.624503 65.219271
-32.860331 27.596975 65.213539
-31.344541 28.736060 65.214806
-29.341817 28.807802 65.171233
-27.491308 29.213194 65.141677
-25.785297 29.935322 65.125428
-23.806146 30.058734 65.084025
-22.228778 31.062842 65.079622
-20.226054 31.134584 65.036049
-18.672258 32.190363 65.033816
-16.669534 32.262105 64.990243
-14.666810 32.333847 64.946670
-12.664087 32.405589 64.903097
-10.661363 32.477331 64.859524
-8.658639 32.549073 64.815951
-6.655915 32.620815 64.772378
-4.653191 32.692557 64.728804
-2.729514 32.552751 64.680362
-1.026516 31.822354 64.618326
0.737868 31.256241 64.560071
2.600160 30.952152 64.507847
4.602884 31.023894 64.464274
6.605607 31.095636 64.420701
8.208297 30.096789 64.352485
9.853510 29.211747 64.286890
11.675679 28.800278 64.232194
13.141537 27.435239 64.155550
15.104137 27.399601 64.109505
16.608919 26.138728 64.035259
18.352040 25.515712 63.975694
19.380088 24.524350 63.920868
20.845946 23.159311 63.844223
22.579637 22.511056 63.784078
24.045496 21.146016 63.707434
25.511354 19.780976 63.630790
26.977213 18.415937 63.554146
28.443071 17.050897 63.477501
28.685434 15.127250 63.411225
29.982363 13.685083 63.336013
31.448221 12.320043 63.259369
31.850152 10.469249 63.191741
31.920465 8.467050 63.126923
32.364734 6.635586 63.058936
33.045684 4.912183 62.988943
33.115997 2.909984 62.924125
33.186310 0.907784 62.859307
33.155672 -1.056775 62.797988
32.313284 -2.718664 62.764803
32.383596 -4.720864 62.699985
31.440257 -6.345112 62.670299
31.273791 -8.259026 62.613688
29.907371 -9.725524 62.598665
29.257710 -11.459274 62.558801
27.891289 -12.925773 62.543778
26.524869 -14.392271 62.528756
25.158448 -15.858769 62.513734
23.792027 -17.325267 62.498711
22.425606 -18.791765 62.483689
20.741745 -19.562445 62.497899
19.116822 -20.462313 62.506681
17.691463 -21.799622 62.497086
17.038128 -23.532002 62.457349
15.040707 -23.608682 62.500645
13.356641 -24.378912 62.514874
11.484187 -24.736202 62.546450
9.930392 -25.791981 62.548683
7.987618 -25.995132 62.586735
6.373872 -26.919501 62.594489
4.371148 -26.991243 62.638062
2.817352 -28.047021 62.640294
0.814628 -28.118763 62.683867
-1.188095 -28.190505 62.727440
-3.067868 -28.531752 62.759691
-4.744615 -29.318025 62.773246
-6.747339 -29.389767 62.816819
-8.750063 -29.461509 62.860392
-10.752787 -29.533251 62.903965
-12.755510 -29.604993 62.947539
7.083238 -41.351255 1.557673
5.594664 -40.216568 1.768483
3.606168 -40.041504 2.007113
1.835775 -39.447781 2.233606
0.129097 -38.731753 2.456554
-1.426869 -37.726427 2.671114
-3.347974 -37.422003 2.905994
-5.043011 -36.683629 3.128294
-6.825045 -36.112252 3.355435
-8.659152 -35.640832 3.585473
-10.290474 -34.780155 3.804227
-11.790690 -33.667814 4.015685
-13.279265 -32.533127 4.226495
-14.830942 -31.519568 4.440817
-16.256415 -30.263752 4.648116
-17.744989 -29.129065 4.858926
-19.371410 -28.258980 5.077407
-20.722139 -26.859690 5.280546
-22.280557 -25.859070 5.495243
-23.699289 -24.590316 5.702166
-24.463875 -23.229102 5.835399
-26.091426 -22.367230 6.053749
-26.647194 -20.599134 6.175555
-28.278516 -19.738457 6.394309
-28.830513 -17.969166 6.515711
-29.524659 -16.244931 6.652326
-30.801853 -14.932296 6.844071
-31.267700 -13.475413 6.945363
-32.112796 -11.799022 7.098133
-32.669821 -10.031325 7.220074
-33.221818 -8.262034 7.341476
-34.499642 -6.722801 7.540558
-34.466703 -4.768109 7.599359
-34.285324 -2.766368 7.642273
-35.130419 -1.089977 7.795043
-34.949040 0.911764 7.837958
-34.767660 2.913505 7.880872
-34.586281 4.915246 7.923786
-34.099320 6.756606 7.925750
-33.271788 8.419220 7.882075
-33.090408 10.420961 7.924989
-32.188229 12.044398 7.871311
-31.775915 13.924935 7.883278
-30.642801 15.427168 7.798653
-29.604161 16.978984 7.726687
-28.742804 18.623846 7.678479
-27.881448 20.268708 7.630272
-26.347115 21.560364 7.491880
-24.977233 22.938331 7.375525
-23.951425 24.496882 7.305280
-22.191185 25.058972 7.117028
-21.329828 26.703834 7.068820
-19.569588 27.265924 6.880568
-18.035254 28.557580 6.742176
-16.500921 29.849237 6.603784
-14.872233 30.836175 6.444567
-13.203217 31.692874 6.276449
-11.446107 32.265073 6.088888
-9.865184 33.406271 5.940213
-8.151533 34.118819 5.762244
-6.391293 34.680909 5.573992
-4.538656 34.944605 5.365347
-2.869640 35.801304 5.197229
-1.110572 36.367179 5.009236
0.787872 36.482939 4.790481
2.456888 37.339638 4.622363
4.445384 37.164574 4.383733
6.156295 37.885973 4.206368
8.102896 37.846209 3.976985
9.902682 38.280587 3.780005
11.760408 38.527845 3.570237
13.748904 38.352781 3.331606
15.737400 38.177718 3.092976
17.406416 39.034416 2.924858
19.394912 38.859353 2.686228
21.383408 38.684289 2.447598
23.371904 38.509226 2.208967
25.360400 38.334162 1.970337
27.348896 38.159099 1.731707
29.337392 37.984035 1.493076
30.929504 37.048092 1.276504
32.814463 36.674284 1.043636
34.802959 36.499221 0.805006
36.291534 35.364533 0.594195
38.280030 35.189470 0.355565
40.146607 34.780377 0.123720
41.757100 33.879719 -0.093875
43.409251 33.059023 -0.313788
45.234171 32.569968 -0.543316
47.222667 32.394905 -0.781946
48.711242 31.260218 -0.992756
50.288036 30.294872 -1.208476
51.688392 28.990843 -1.414377
53.197182 27.894961 -1.626312
55.165462 27.681092 -1.863817
56.654037 26.546405 -2.074627
58.142612 25.411718 -2.285437
58.996643 24.222196 -2.423647
60.274467 22.682963 -2.622729
61.905789 21.822286 -2.841483
63.183613 20.283052 -3.040565
64.461437 18.743819 -3.239648
65.739262 17.204585 -3.438730
67.017086 15.665352 -3.637812
68.294910 14.126119 -3.836894
69.572735 12.586885 -4.035976
70.648037 10.983461 -4.213384
70.676728 9.048303 -4.278780
71.954552 7.509070 -4.477862
73.183324 5.954289 -4.671695
73.001945 3.952548 -4.714609
73.610542 2.201197 -4.842069
73.665661 0.274416 -4.910294
73.988708 -1.567443 -5.007193
74.329377 -3.403716 -5.105978
74.147998 -5.405457 -5.148893
73.966618 -7.407198 -5.191807
73.785238 -9.408939 -5.234721
73.603859 -11.410681 -5.277636
72.518567 -12.938012 -5.199419
72.289366 -14.914654 -5.235924
71.468832 -16.580942 -5.193187
70.974872 -18.418628 -5.194213
70.419098 -20.223872 -5.186956
68.884764 -21.515528 -5.048564
68.023408 -23.160390 -5.000356
66.489074 -24.452046 -4.861964
65.309304 -25.929792 -4.771086
64.644992 -27.349805 -4.738760
63.006122 -28.303860 -4.577296
61.471788 -29.595516 -4.438904
59.937454 -30.887173 -4.300512
58.403121 -32.178829 -4.162120
56.868787 -33.470485 -4.023728
55.269855 -34.553522 -3.871078
53.574213 -35.324231 -3.697084
51.813973 -35.886321 -3.508832
50.053733 -36.448411 -3.320580
48.519399 -37.740067 -3.182188
46.759159 -38.302157 -2.993936
44.998919 -38.864247 -2.805684
43.267263 -39.518651 -2.623741
41.598247 -40.375350 -2.455623
39.718198 -40.550518 -2.240928
37.940735 -41.056985 -2.048875
35.971811 -40.945132 -1.814564
34.283223 -41.738620 -1.642127
32.451331 -42.069312 -1.438060
30.625711 -42.420255 -1.235378
28.704944 -42.463926 -1.011697
26.968198 -43.101890 -0.828630
24.979702 -42.926827 -0.590000
22.991206 -42.751763 -0.351370
21.002710 -42.576700 -0.112739
19.014214 -42.401636 0.125891
17.025718 -42.226573 0.364521
15.037222 -42.051509 0.603152
13.048726 -41.876446 0.841782
11.060230 -41.701382 1.080412
9.071734 -41.526319 1.319042
19.883593 -40.467804 -1.277065
18.243991 -39.583103 -1.056571
16.260512 -39.724690 -0.828679
14.277033 -39.866277 -0.600788
12.293554 -40.007864 -0.372896
10.653951 -39.123163 -0.152401
8.670472 -39.264749 0.075490
6.731337 -39.273994 0.302428
5.047391 -38.521635 0.523876
3.251444 -38.103540 0.747734
1.424309 -37.778521 0.972262
-0.471607 -37.658780 1.198270
-2.198772 -37.035406 1.420648
-3.951501 -36.488325 1.643576
-5.821854 -36.292292 1.869034
-6.750175 -34.975840 2.020019
-8.520559 -34.481452 2.243327
-10.230069 -33.805385 2.465325
-11.970016 -33.220158 2.687978
-13.466805 -31.909235 2.905400
-15.206752 -31.324008 3.128053
-16.718573 -30.057945 3.345799
-18.443488 -29.427858 3.568128
-19.940278 -28.116935 3.785551
-21.437068 -26.806013 4.002973
-22.933857 -25.495090 4.220395
-24.430647 -24.184168 4.437817
-25.927437 -22.873245 4.655240
-27.424226 -21.562322 4.872662
-28.286109 -19.932622 5.025903
-29.382799 -18.420815 5.202880
-30.552157 -16.945493 5.387203
-31.576180 -15.397201 5.556834
-32.183298 -13.639586 5.684321
-32.998869 -11.986633 5.832880
-33.902862 -10.378075 5.990378
-34.036164 -8.382564 6.069968
-34.169465 -6.387052 6.149558
-34.898714 -4.690758 6.289391
-35.399457 -2.879734 6.406125
-35.532758 -0.884223 6.485715
-34.647498 0.769062 6.434976
-34.780799 2.764574 6.514566
-34.875131 4.746992 6.589169
-34.028840 6.413370 6.543417
-34.162141 8.408881 6.623007
-33.276881 10.062166 6.572268
-32.522966 11.759582 6.538335
-31.934925 13.512729 6.525626
-30.626652 15.023886 6.420761
-30.038611 16.777034 6.408052
-29.254519 18.132518 6.359622
-27.926305 19.397853 6.244540
-26.879570 20.425971 6.154838
-25.571297 21.937127 6.049973
-24.983256 23.690275 6.037264
-23.674983 25.201432 5.932399
-21.854170 25.672966 5.734146
-20.383751 26.855230 5.599737
-19.575320 28.534329 5.558829
-17.915458 28.959347 5.377945
-16.504478 30.262177 5.254366
-14.902650 31.177893 5.096014
-13.396245 32.287166 4.955048
-11.889841 33.396439 4.814082
-10.259357 34.254031 4.650508
-8.613741 35.080931 4.484177
-6.893554 35.756572 4.304259
-5.322510 36.734729 4.151515
-3.403672 37.007432 3.935401
-1.897268 38.116705 3.794436
0.086211 38.258292 3.566544
1.934639 38.673812 3.363259
3.576094 39.509151 3.197687
5.559573 39.650738 2.969795
7.543052 39.792325 2.741903
9.526531 39.933912 2.514012
11.032935 41.043185 2.373046
13.016414 41.184772 2.145154
14.999893 41.326359 1.917263
16.983371 41.467946 1.689371
18.966850 41.609533 1.461479
20.950329 41.751120 1.233588
22.790620 41.465366 1.008776
24.573411 41.008005 0.785202
26.556889 41.149592 0.557310
28.540368 41.291179 0.329418
30.236721 40.575847 0.107703
32.163450 40.548065 -0.118968
33.959772 40.131088 -0.342833
35.786531 39.804950 -0.567354
37.439666 38.960633 -0.788139
39.409613 39.061836 -1.015740
41.162716 38.515874 -1.238676
42.902663 37.930647 -1.461329
44.642610 37.345419 -1.683982
46.311900 36.549319 -1.905115
47.951503 35.664618 -2.125609
49.619293 34.864042 -2.346710
51.359240 34.278815 -2.569363
53.099187 33.693587 -2.792016
54.595976 32.382665 -3.009438
56.149516 31.241112 -3.228081
57.832713 30.486515 -3.449513
59.329502 29.175592 -3.666936
61.068324 28.587008 -3.889564
61.885020 26.937411 -4.038148
63.226968 26.152355 -4.220568
64.440537 24.699231 -4.409360
66.121859 23.939039 -4.630752
66.478026 22.200955 -4.728206
67.574717 20.689148 -4.905183
68.627196 19.155143 -5.077690
69.768098 17.665534 -5.259137
70.864788 16.153727 -5.436114
71.073908 14.196283 -5.523368
72.094780 12.646409 -5.692681
72.228081 10.650897 -5.772271
72.839401 8.895392 -5.900183
73.458073 7.143579 -6.028838
73.591374 5.148068 -6.108428
73.724676 3.152556 -6.188018
73.857977 1.157045 -6.267607
73.991278 -0.838467 -6.347197
74.124580 -2.833978 -6.426787
73.942417 -4.553199 -6.460553
72.397427 -5.584206 -6.312557
72.448347 -7.552038 -6.381606
71.563087 -9.205323 -6.330867
70.677826 -10.858607 -6.280128
70.045263 -12.596796 -6.261722
69.237717 -13.904706 -6.209019
67.983032 -15.234440 -6.104617
67.223565 -16.929990 -6.069974
66.356580 -18.117335 -6.006440
64.989908 -19.510037 -5.890934
63.681635 -21.021194 -5.786069
62.373362 -22.532351 -5.681204
61.065089 -24.043507 -5.576339
59.756816 -25.554664 -5.471474
58.111200 -26.381563 -5.305143
56.465584 -27.208463 -5.138812
55.157311 -28.719619 -5.033946
53.753093 -30.036165 -4.911600
51.866079 -30.373418 -4.701284
50.263210 -31.287024 -4.542742
48.574847 -32.027217 -4.368622
46.929231 -32.854116 -4.202291
45.266923 -33.647157 -4.032919
43.637999 -34.507915 -3.869629
42.254115 -35.865703 -3.750987
40.270636 -36.007290 -3.523096
38.287157 -36.148877 -3.295204
36.718193 -37.131255 -3.142839
34.797274 -37.399737 -2.926347
33.089619 -38.100796 -2.748712
31.307392 -38.650597 -2.557489
29.323913 -38.792184 -2.329598
27.340434 -38.933771 -2.101706
25.356955 -39.075358 -1.873814
23.849511 -40.182520 -1.732659
21.867072 -40.326217 -1.504957
4.577288 -40.888290 1.693744
3.055187 -39.810189 1.906669
1.068633 -39.709493 2.142688
-0.917922 -39.608798 2.378706
-2.279297 -38.941204 2.559637
-3.381162 -37.482043 2.735533
-5.305342 -37.250085 2.968451
-6.889817 -36.303246 3.184477
-8.619605 -35.662206 3.407728
-10.276736 -34.868267 3.627367
-11.920572 -34.046348 3.846345
-13.590998 -33.280387 4.066645
-14.964772 -31.890146 4.272195
-16.905261 -31.692508 4.505923
-18.233973 -30.207438 4.709232
-19.891104 -29.413499 4.928871
-21.219817 -27.928429 5.132180
-22.876948 -27.134489 5.351819
-24.205660 -25.649420 5.555128
-25.534373 -24.164350 5.758437
-27.141574 -23.265336 5.975594
-28.520217 -21.885340 6.181385
-29.848929 -20.400271 6.384694
-30.460646 -18.658373 6.512216
-31.072363 -16.916476 6.639739
-32.401075 -15.431407 6.843048
-33.729788 -13.946337 7.046357
-34.341505 -12.204440 7.173879
-35.566602 -10.682255 7.366236
-35.459130 -8.682745 7.417739
-36.176656 -6.978748 7.556446
-36.258172 -5.046933 7.627925
-37.164685 -3.410632 7.786608
-37.057214 -1.411122 7.838111
-36.949743 0.588388 7.889615
-36.842271 2.587898 7.941118
-36.734800 4.587408 7.992622
-35.706193 6.146319 7.922060
-35.550320 8.122678 7.967149
-35.442849 10.122188 8.018653
-34.365841 11.657947 7.941677
-33.288833 13.193707 7.864701
-33.101654 15.155091 7.905642
-31.620954 16.497756 7.775170
-31.027346 18.264736 7.762252
-30.030686 19.838927 7.695924
-28.549986 21.181592 7.565452
-27.754852 22.852178 7.525829
-26.110168 23.726946 7.361141
-24.704199 24.895033 7.233830
-23.493236 25.766936 7.119876
-22.012536 27.109601 6.989404
-20.535068 28.453812 6.859360
-19.482198 29.396672 6.766206
-17.750920 30.024360 6.583451
-16.270220 31.367024 6.452979
-14.593975 32.151739 6.281707
-13.056279 33.331775 6.139342
-11.335160 33.988451 5.958707
-9.589797 34.575948 5.773013
-7.719198 34.806111 5.561188
-6.089791 35.724466 5.399688
-4.390074 36.442207 5.223518
-2.473829 36.542127 5.002170
-0.844421 37.460482 4.840670
0.809649 38.308467 4.674024
2.771541 38.278142 4.443151
4.758095 38.177447 4.207132
6.387503 39.095802 4.045632
8.374057 38.995107 3.809614
10.360612 38.894411 3.573595
12.347166 38.793715 3.337576
13.976574 39.712071 3.176076
15.963128 39.611376 2.940057
17.949683 39.510680 2.704038
19.936238 39.409984 2.468020
21.922792 39.309289 2.232001
23.909347 39.208593 1.995982
25.895901 39.107897 1.759963
27.515700 38.235394 1.542181
29.404556 37.929100 1.311020
31.391110 37.828405 1.075001
32.913211 36.750303 0.862076
34.899765 36.649608 0.626057
36.786612 36.339086 0.394996
38.408420 35.470811 0.177114
40.394974 35.370115 -0.058905
41.917075 34.292014 -0.271830
43.743556 33.854458 -0.499890
45.400687 33.060518 -0.719529
46.947829 32.035116 -0.933699
48.714950 31.472639 -1.158806
50.043662 29.987569 -1.362116
51.978584 29.778218 -1.595567
53.357925 28.399690 -1.801393
54.686637 26.914620 -2.004702
56.343768 26.120681 -2.224341
58.000900 25.326741 -2.443980
59.329612 23.841671 -2.647289
60.715064 22.950416 -2.838212
61.598460 21.305834 -2.994451
62.927173 19.820765 -3.197760
64.480018 18.989470 -3.406375
65.196021 17.284928 -3.544921
66.524733 15.799858 -3.748230
67.199558 14.080566 -3.882422
68.465163 12.572891 -4.079061
69.076880 10.830994 -4.206583
70.405592 9.345924 -4.409892
70.825611 7.535361 -4.517152
70.912031 5.605303 -4.589150
71.624653 3.899550 -4.727338
72.135465 2.121508 -4.844194
72.747182 0.379611 -4.971716
73.330208 -1.372563 -5.096206
72.507641 -3.030027 -5.052948
72.145729 -4.907833 -5.070734
72.038257 -6.907343 -5.122237
71.930786 -8.906853 -5.173741
70.853778 -10.442612 -5.096765
70.746306 -12.442122 -5.148268
69.793534 -14.037306 -5.087755
68.998400 -15.707892 -5.048132
68.484819 -17.513151 -5.045820
67.989210 -19.078849 -5.037933
66.362233 -19.999921 -4.876805
65.565322 -21.669657 -4.836947
64.770188 -23.340243 -4.797324
63.289488 -24.682908 -4.666852
61.808788 -26.025572 -4.536380
60.328088 -27.368237 -4.405908
58.847388 -28.710902 -4.275436
57.366689 -30.053566 -4.144964
55.885989 -31.396231 -4.014492
54.285643 -32.397508 -3.859056
52.672048 -33.360982 -3.700855
51.026828 -34.234219 -3.536056
49.397420 -35.152575 -3.374556
47.724866 -35.947819 -3.204054
45.991625 -36.569905 -3.020889
44.152051 -36.888591 -2.815538
42.522643 -37.806947 -2.654038
40.791901 -38.436165 -2.471394
39.058660 -39.058251 -2.288230
37.277274 -39.542962 -2.095019
35.339637 -39.581846 -1.869207
33.661311 -40.360623 -1.697500
31.674757 -40.259927 -1.461482
30.045349 -41.178283 -1.299982
28.058795 -41.077587 -1.063963
26.420891 -41.971700 -0.900690
24.442833 -41.895247 -0.666444
22.456278 -41.794551 -0.430425
20.469724 -41.693856 -0.194407
18.483169 -41.593160 0.041612
16.496615 -41.492464 0.277631
14.510060 -41.391769 0.513650
12.523506 -41.291073 0.749669
10.536951 -41.190377 0.985687
8.550397 -41.089682 1.221706
6.563842 -40.988986 1.457725
-29.609691 -36.196742 -69.511131
-31.288400 -35.352386 -69.447005
-33.283571 -35.542703 -69.353270
-35.278741 -35.733020 -69.259536
-36.957451 -34.888663 -69.195409
-38.952621 -35.078980 -69.101675
-40.677010 -34.383973 -69.033275
-42.626501 -34.424941 -68.943814
-44.305211 -33.580585 -68.879688
-46.300381 -33.770902 -68.785953
-48.204404 -33.663210 -68.700746
-49.974261 -33.116862 -68.628092
-51.520557 -31.839579 -68.576355
-53.290520 -31.293577 -68.503691
-55.010389 -30.583794 -68.435713
-56.830445 -30.201571 -68.358363
-58.376636 -28.923943 -68.306635
-60.046518 -28.050725 -68.243334
-61.692789 -27.100313 -68.182243
-63.403936 -26.362013 -68.115082
-65.082646 -25.517657 -68.050955
-66.103713 -24.372067 -68.021226
-67.649903 -23.094439 -67.969498
-69.196094 -21.816812 -67.917770
-70.898519 -21.049994 -67.851425
-71.837055 -19.634569 -67.829416
-73.383245 -18.356941 -67.777689
-74.254244 -16.720701 -67.761999
-75.755194 -15.419045 -67.712686
-76.671433 -13.806833 -67.694582
-77.542432 -12.170593 -67.678893
-78.239345 -10.441892 -67.672495
-79.284428 -8.898113 -67.647514
-79.577157 -6.954737 -67.662690
-80.351233 -5.267019 -67.652173
-80.914969 -3.467583 -67.652884
-81.106442 -1.470428 -67.673465
-81.297915 0.526727 -67.694045
-81.489388 2.523881 -67.714625
-81.680861 4.521036 -67.735206
-81.872334 6.518191 -67.755786
-81.029884 8.197899 -67.818835
-81.221357 10.195053 -67.839415
-80.614327 11.947042 -67.892794
-79.536458 13.554469 -67.965513
-79.727931 15.551623 -67.986094
-78.981388 17.260777 -68.045203
-77.705981 18.807554 -68.126036
-77.142574 20.542815 -68.177181
-75.527530 21.449515 -68.264102
-75.459780 23.367080 -68.295330
-74.080174 24.315945 -68.372138
-73.446009 25.917857 -68.424552
-71.901723 26.957906 -68.510204
-71.052814 28.155113 -68.566467
-69.364542 28.923807 -68.654700
-68.089135 30.470583 -68.735533
-67.271178 32.157811 -68.797576
-65.683922 32.685190 -68.877664
-64.196073 33.831600 -68.962305
-62.642409 34.853976 -69.048125
-61.008271 35.724692 -69.135388
-59.225205 36.314738 -69.225321
-57.739996 37.466124 -69.309915
-56.249507 38.607558 -69.394603
-54.761659 39.753969 -69.479244
-52.837583 40.078271 -69.571704
-51.278639 41.090696 -69.657619
-49.283468 41.281013 -69.751353
-47.795620 42.427423 -69.835994
-45.800449 42.617740 -69.929729
-44.308164 43.755791 -70.014449
-42.317429 43.954467 -70.108104
-40.681158 44.821163 -70.195405
-38.834410 45.291195 -70.286480
-36.839239 45.481511 -70.380214
-34.844069 45.671828 -70.473949
-32.848898 45.862145 -70.567683
-30.853727 46.052462 -70.661418
-28.858557 46.242779 -70.755152
-26.863386 46.433096 -70.848887
-25.375537 47.579506 -70.933528
-23.431790 47.601692 -71.022451
-21.701657 46.925467 -71.091389
-19.706486 47.115784 -71.185123
-17.711316 47.306101 -71.278858
-16.032606 46.461744 -71.342984
-14.037436 46.652061 -71.436718
-12.042265 46.842378 -71.530453
-10.363556 45.998022 -71.594579
-8.377002 46.160166 -71.687508
-6.689675 45.343983 -71.752440
-4.694505 45.534300 -71.846175
-3.015795 44.689943 -71.910301
-1.073379 44.707778 -71.999100
0.658085 44.035904 -72.068162
2.466546 43.615772 -72.144428
4.015503 42.347192 -72.196415
5.782699 41.792142 -72.268820
7.552661 41.246139 -72.341484
9.322624 40.700136 -72.414148
10.868815 39.422509 -72.465876
12.725511 39.160084 -72.546654
13.733548 37.971890 -72.575165
15.500427 37.415807 -72.647541
17.049701 36.148260 -72.699557
18.595891 34.870632 -72.751285
20.142082 33.593005 -72.803013
21.688273 32.315378 -72.854740
23.234463 31.037750 -72.906468
24.780654 29.760123 -72.958196
25.651652 28.123883 -72.973886
26.593255 26.525142 -72.993343
28.068841 25.210015 -73.041303
28.939840 23.573775 -73.056992
30.032272 22.055144 -73.084501
31.178611 20.565144 -73.114886
31.370084 18.567989 -73.094306
32.423834 17.028813 -73.119750
32.707896 15.080835 -73.104111
32.899369 13.083680 -73.083531
34.045708 11.593681 -73.113917
33.890402 9.702998 -73.079092
33.394731 7.916818 -73.030287
33.586204 5.919664 -73.009707
33.777677 3.922509 -72.989127
33.175338 2.169079 -72.935940
33.126700 0.245646 -72.905497
32.086712 -1.373411 -72.834334
31.441801 -3.113769 -72.779399
30.599351 -4.793476 -72.716350
30.288391 -6.375468 -72.678961
28.858549 -7.569810 -72.596261
28.275323 -9.329107 -72.543860
27.731010 -11.100352 -72.493057
26.096872 -11.971068 -72.405794
25.432848 -13.705558 -72.350073
24.277153 -15.289089 -72.274158
22.643015 -16.159805 -72.186895
21.367608 -17.706581 -72.106062
20.092201 -19.253358 -72.025229
18.679377 -20.541158 -71.941933
17.182657 -21.670850 -71.857133
15.703680 -22.833979 -71.772651
14.215831 -23.980389 -71.688011
12.638975 -24.959057 -71.601774
10.732811 -25.317117 -71.509635
9.244963 -26.463527 -71.424994
7.736562 -27.571205 -71.339985
5.761943 -27.800254 -71.246619
4.468287 -29.312637 -71.165459
2.786245 -30.093075 -71.077337
0.791075 -30.283392 -70.983603
-0.792857 -31.248725 -70.897240
-2.691945 -31.620119 -70.805227
-4.179793 -32.766529 -70.720587
-6.174964 -32.956846 -70.626852
-7.688138 -34.055528 -70.541757
-9.657984 -34.293573 -70.448477
-11.653154 -34.483890 -70.354742
-13.648325 -34.674207 -70.261008
-15.643496 -34.864524 -70.167273
-17.638666 -35.054841 -70.073538
-19.633837 -35.245158 -69.979804
-21.629008 -35.435475 -69.886069
-23.624178 -35.625791 -69.792335
-25.619349 -35.816108 -69.698600
-27.614520 -36.006425 -69.604866
-10.584507 -30.385907 63.037298
-12.208942 -29.448160 63.104082
-14.209483 -29.525089 63.147442
-16.210024 -29.602018 63.190801
-18.052129 -29.251511 63.244028
-19.835001 -28.741200 63.300945
-21.785940 -28.684312 63.347393
-23.459977 -27.880381 63.411088
-25.460518 -27.957310 63.454448
-27.253683 -27.474772 63.510723
-28.987615 -26.832431 63.570687
-30.709929 -26.158745 63.631375
-32.334364 -25.220997 63.698159
-33.923464 -24.187922 63.767144
-35.583234 -23.345502 63.831728
-37.207669 -22.407755 63.898512
-38.859313 -21.543413 63.963601
-40.327297 -20.183587 64.040129
-42.009603 -19.517510 64.099662
-42.833838 -17.861723 64.170799
-44.567770 -17.219382 64.230764
-45.340380 -15.539860 64.301469
-47.032175 -14.783839 64.364058
-47.846921 -13.217996 64.432138
-48.318903 -11.400262 64.500326
-49.392139 -9.858952 64.573549
-50.436728 -8.304472 64.646532
-51.495640 -6.756576 64.719634
-51.571143 -4.756563 64.784502
-51.646646 -2.756549 64.849370
-51.722149 -0.756535 64.914238
-51.797651 1.243478 64.979105
-51.873154 3.243492 65.043973
-51.796494 5.187225 65.103581
-51.009515 6.868234 65.138638
-51.085018 8.868248 65.203506
-49.865258 10.389185 65.223604
-49.206734 12.117705 65.263100
-48.267592 13.742434 65.292897
-47.216560 15.325778 65.318827
-45.855352 16.794399 65.334036
-44.494144 18.263019 65.349244
-43.132937 19.731639 65.364453
-41.771729 21.200259 65.379662
-40.091252 21.973899 65.365623
-38.730045 23.442519 65.380832
-37.049568 24.216159 65.366793
-35.369091 24.989798 65.352754
-33.688614 25.763438 65.338715
-32.128024 26.798046 65.335658
-30.578998 27.857826 65.333661
-28.647183 28.084357 65.296598
-27.029431 28.994535 65.288305
-25.028890 29.071465 65.244946
-23.479864 30.131245 65.242949
-21.479323 30.208174 65.199589
-19.606259 30.562594 65.167908
-17.929755 31.344883 65.154233
-15.929214 31.421812 65.110873
-13.928673 31.498741 65.067514
-11.928132 31.575670 65.024155
-9.927591 31.652599 64.980795
-7.927050 31.729528 64.937436
-5.926509 31.806457 64.894076
-3.927292 31.879814 64.850634
-2.301533 30.945639 64.783933
-0.300992 31.022568 64.740573
1.540451 30.670274 64.687305
3.323984 30.161750 64.630430
5.274262 30.103076 64.583940
6.948961 29.300931 64.520286
8.742126 28.818393 64.464011
10.476058 28.176052 64.404047
12.198372 27.502365 64.343359
13.822807 26.564618 64.276574
15.447242 25.626871 64.209790
17.145839 24.889201 64.147625
18.696112 23.751376 64.076222
20.347755 22.887033 64.011133
21.455724 21.956908 63.956410
22.984200 20.915630 63.888554
24.588228 19.922828 63.820498
26.056213 18.563002 63.743970
26.828822 16.883480 63.673265
28.296807 15.523654 63.596737
29.753930 14.158834 63.520300
29.842026 12.164610 63.455326
31.310010 10.804784 63.378798
31.947257 9.063030 63.309227
32.022760 7.063016 63.244359
32.932463 5.446523 63.172506
33.157175 3.515107 63.106388
33.232678 1.515094 63.041521
33.308181 -0.484920 62.976653
32.369039 -2.109649 62.946856
32.444542 -4.109662 62.881988
32.242998 -6.007205 62.826696
31.580902 -7.734404 62.787323
30.641760 -9.359133 62.757526
30.131315 -10.816371 62.723204
28.741390 -12.023529 62.716907
27.987540 -13.716791 62.680705
27.106186 -14.933554 62.662465
25.663318 -16.224418 62.654737
24.302110 -17.693038 62.639528
22.940903 -19.161658 62.624320
21.361597 -20.155525 62.629090
19.812571 -21.215305 62.631087
18.218741 -22.177557 62.637189
16.538264 -22.951197 62.651228
15.165493 -24.394645 62.637078
13.496579 -25.193457 62.650058
11.816102 -25.967096 62.664097
10.066900 -26.591135 62.684432
8.135879 -26.819395 62.721423
6.517332 -27.727844 62.729788
4.516791 -27.804773 62.773148
2.967765 -28.864553 62.775145
0.967224 -28.941482 62.818504
-1.033317 -29.018411 62.861863
-2.585522 -30.071271 62.864152
-4.582884 -30.155120 62.907220
-6.583425 -30.232049 62.950579
-8.583966 -30.308978 62.993939
