ply
format ascii 1.0
element vertex 1216
property float x
property float y
property float z
end_header
-12.274462 -21.925861 -81.160995
-13.834897 -20.886696 -81.154632
-15.833977 -20.836590 -81.117868
-17.833057 -20.786484 -81.081103
-19.393493 -19.747319 -81.074741
-21.392573 -19.697213 -81.037976
-23.028182 -18.827552 -81.026403
-24.952088 -18.607942 -80.994849
-26.512523 -17.568777 -80.988487
-28.405042 -17.278397 -80.959108
-30.072039 -16.479506 -80.945360
-31.782837 -15.779380 -80.928576
-33.471734 -15.029872 -80.913310
-35.191989 -14.351070 -80.895871
-36.849528 -13.530854 -80.882778
-38.312860 -12.272739 -80.883147
-39.917154 -11.332466 -80.873744
-41.606051 -10.582958 -80.858479
-42.994166 -9.155242 -80.864060
-44.673677 -8.384570 -80.849445
-46.052406 -6.935691 -80.855677
-47.431134 -5.486811 -80.861909
-48.853296 -4.634560 -80.853992
-49.784781 -3.013409 -80.872548
-51.332630 -1.945865 -80.867058
-51.749093 -0.390043 -80.893914
-52.803176 1.183885 -80.909091
-54.181904 2.632765 -80.915323
-54.846653 4.356658 -80.941228
-55.590919 6.049923 -80.964941
-56.551375 7.659914 -80.982698
-57.511831 9.269905 -81.000455
-57.462568 11.268825 -81.046033
-57.413305 13.267744 -81.091612
-58.121168 14.975031 -81.116328
-58.324498 16.876655 -81.154947
-58.275234 18.875574 -81.200525
-58.225971 20.874494 -81.246103
-58.176708 22.873413 -81.291681
-57.138130 24.433300 -81.346202
-57.088867 26.432220 -81.391780
-56.877080 28.359015 -81.438828
-56.001025 29.991026 -81.491879
-54.679836 31.425497 -81.548955
-53.923870 33.110800 -81.600921
-53.874606 35.109719 -81.646499
-52.157962 35.776838 -81.693930
-51.250593 37.054192 -81.739655
-49.685383 38.129274 -81.793328
-48.236986 39.507293 -81.851553
-46.788589 40.885313 -81.909778
-45.340191 42.263332 -81.968003
-43.891794 43.641352 -82.026229
-42.168061 44.305325 -82.073724
-40.444329 44.969298 -82.121219
-38.995931 46.347318 -82.179445
-37.547534 47.725337 -82.237670
-35.932383 48.670902 -82.289397
-34.322685 49.630610 -82.341336
-32.376337 49.717257 -82.380156
-30.713907 50.540213 -82.430040
-29.104210 51.499921 -82.481979
-27.205139 51.709177 -82.522642
-25.495432 52.409523 -82.570683
-23.757675 53.037124 -82.617632
-21.886655 53.319126 -82.659388
-20.276957 54.278834 -82.711327
-18.277877 54.228729 -82.748092
-16.312075 54.264925 -82.786153
-14.669100 55.138331 -82.836796
-12.670020 55.088226 -82.873561
-10.670940 55.038120 -82.910325
-8.671860 54.988015 -82.947090
-6.672780 54.937909 -82.983855
-4.673700 54.887804 -83.020620
-2.674620 54.837698 -83.057384
-0.675540 54.787592 -83.094149
1.323540 54.737487 -83.130914
3.322620 54.687381 -83.167679
5.321700 54.637276 -83.204444
7.101430 54.092576 -83.226005
8.881216 53.548005 -83.247571
10.880296 53.497899 -83.284335
12.478290 52.543422 -83.293301
14.439811 52.408628 -83.327462
16.438891 52.358523 -83.364227
17.999326 51.319357 -83.370589
19.854216 50.944129 -83.397360
21.232944 49.495250 -83.391128
23.119277 49.190921 -83.420078
24.679712 48.151755 -83.426441
26.299636 47.246724 -83.436926
28.239228 47.062484 -83.469567
29.677430 45.747707 -83.467458
31.056159 44.298828 -83.461226
32.745056 43.549319 -83.476491
34.433953 42.799811 -83.491757
35.812682 41.350931 -83.485525
37.191411 39.902052 -83.479293
39.162275 39.788326 -83.514103
39.855225 38.128021 -83.490152
41.176305 36.656936 -83.482332
41.898703 34.955249 -83.458016
43.355720 33.682895 -83.457210
44.966329 32.756861 -83.467050
45.032559 30.802428 -83.424654
45.993015 29.192436 -83.406897
46.953472 27.582445 -83.389140
47.625325 25.861288 -83.363431
47.864665 23.973534 -83.325805
48.825121 22.363543 -83.308048
48.775858 20.364623 -83.262470
49.570341 18.690702 -83.240140
49.687051 16.755713 -83.199135
49.637788 14.756793 -83.153557
49.588524 12.757874 -83.107978
49.539261 10.758954 -83.062400
49.489998 8.760035 -83.016822
48.451420 7.200148 -82.962301
47.455213 5.621458 -82.908163
47.363578 3.641342 -82.862202
45.957520 2.244533 -82.804359
45.286423 0.521568 -82.753160
44.459827 -1.132391 -82.700556
43.011430 -2.510411 -82.642330
41.563032 -3.888430 -82.584105
40.814186 -5.576893 -82.532203
39.365788 -6.954912 -82.473978
37.859041 -8.181610 -82.418027
36.193658 -8.996905 -82.368257
34.745261 -10.374924 -82.310032
33.296863 -11.752944 -82.251807
31.573131 -12.416917 -82.204311
30.124734 -13.794937 -82.146086
28.401001 -14.458910 -82.098591
26.952604 -15.836929 -82.040366
25.228871 -16.500903 -81.992870
23.505139 -17.164876 -81.945375
21.762066 -17.778692 -81.898633
20.057674 -18.492823 -81.850384
18.153288 -18.688295 -81.809929
16.334874 -19.106723 -81.766124
14.611142 -19.770696 -81.718629
12.934813 -20.557606 -81.669286
10.935733 -20.507500 -81.632521
8.936653 -20.457395 -81.595756
7.326956 -21.417103 -81.543817
5.327876 -21.366997 -81.507052
3.442742 -21.612398 -81.465847
1.719098 -22.276600 -81.418348
-0.279982 -22.226494 -81.381583
-2.279062 -22.176389 -81.344819
-4.278142 -22.126283 -81.308054
-6.277222 -22.076178 -81.271289
-8.276302 -22.026072 -81.234524
-10.275382 -21.975967 -81.197759
-10.587657 -22.494072 -82.574378
-12.231030 -21.573150 -82.563803
-14.238983 -21.670941 -82.523567
-16.246936 -21.768732 -82.483331
-18.092805 -21.413626 -82.456282
-19.840193 -20.783345 -82.437244
-21.541635 -20.024680 -82.421945
-23.549588 -20.122471 -82.381709
-25.192960 -19.201550 -82.371134
-26.836333 -18.280629 -82.360560
-28.834932 -18.352281 -82.321085
-30.487659 -17.457498 -82.309749
-32.329708 -17.091719 -82.283010
-33.819299 -15.741101 -82.284947
-35.566688 -15.110820 -82.265909
-37.314076 -14.480540 -82.246872
-38.803667 -13.129921 -82.248809
-40.551056 -12.499640 -82.229771
-42.040647 -11.149021 -82.231708
-43.788035 -10.518741 -82.212671
-45.277626 -9.168122 -82.214607
-46.767218 -7.817503 -82.216544
-48.514606 -7.187222 -82.197507
-49.456966 -5.578031 -82.215589
-50.802030 -4.159122 -82.221789
-52.291621 -2.808503 -82.223726
-52.687792 -0.941232 -82.257922
-53.887286 0.546461 -82.268418
-54.841676 2.149968 -82.286145
-56.174709 3.574562 -82.292700
-56.995560 5.241168 -82.314367
-57.094207 7.249022 -82.357342
-57.876447 8.933872 -82.380148
-58.269796 10.802476 -82.414428
-58.368443 12.810331 -82.457403
-58.467091 14.818185 -82.500378
-58.565738 16.826039 -82.543352
-58.664385 18.833894 -82.586327
-57.744095 20.476762 -82.640460
-57.673485 22.423988 -82.685288
-56.922451 24.127485 -82.737567
-56.414314 25.917988 -82.787186
-56.100808 27.778208 -82.834674
-55.155143 29.411988 -82.889085
-53.805060 30.900904 -82.947924
-53.175475 32.647903 -82.998873
-51.825392 34.136819 -83.057712
-51.057964 35.592339 -83.104763
-49.518545 36.680886 -83.158248
-48.168461 38.169802 -83.217087
-47.469883 39.770911 -83.266086
-45.861614 40.713869 -83.317624
-44.511531 42.202785 -83.376463
-42.834269 42.999852 -83.426050
-41.288874 44.075763 -83.479366
-39.743622 45.151976 -83.532686
-37.802484 45.391053 -83.574812
-36.452401 46.879969 -83.633650
-34.775139 47.677036 -83.683238
-33.099912 48.478405 -83.732882
-31.554659 49.554618 -83.786203
-29.743354 50.068237 -83.831999
-28.001454 50.728622 -83.879759
-26.061652 50.970523 -83.921922
-24.448249 51.902626 -83.973315
-22.440296 52.000417 -84.013551
-20.895044 53.076630 -84.066871
-19.025426 53.466942 -84.111019
-17.341838 54.250633 -84.160427
-15.333885 54.348424 -84.200663
-13.325932 54.446215 -84.240900
-11.317980 54.544006 -84.281136
-9.310027 54.641797 -84.321372
-7.302074 54.739588 -84.361608
-5.321521 54.895318 -84.402619
-3.748868 55.913591 -84.455164
-1.919054 55.513626 -84.480907
-0.097543 55.090461 -84.505975
1.910410 55.188252 -84.546211
3.838705 55.063461 -84.579966
5.561736 54.365121 -84.597022
7.569689 54.462912 -84.637258
9.338667 53.892957 -84.658052
11.221015 53.639782 -84.688069
12.864388 52.718860 -84.698644
14.872341 52.816651 -84.738880
16.843814 52.812511 -84.776148
18.333406 51.461893 -84.774212
20.167039 51.072599 -84.800266
21.828182 50.201331 -84.812286
23.575570 49.571051 -84.831323
25.322959 48.940770 -84.850361
27.070347 48.310490 -84.869398
28.748484 47.486705 -84.882801
30.307327 46.329590 -84.886498
32.035229 45.644863 -84.903950
33.544306 44.348691 -84.903599
35.033897 42.998072 -84.901663
36.781286 42.367791 -84.920700
38.270877 41.017173 -84.918763
39.068709 39.339691 -84.896417
40.558301 37.989072 -84.894481
42.047892 36.638453 -84.892544
43.537483 35.287834 -84.890608
44.335315 33.610352 -84.868262
45.133148 31.932870 -84.845916
45.930980 30.255388 -84.823570
46.958156 28.686273 -84.807990
48.035098 27.140673 -84.793879
48.133745 25.132819 -84.750904
49.122310 23.545460 -84.734185
49.309334 21.579364 -84.693818
49.407981 19.571510 -84.650843
49.506628 17.563656 -84.607868
49.605275 15.555801 -84.564894
49.036799 13.786912 -84.514614
48.783632 11.905078 -84.467786
48.498126 10.034829 -84.420605
47.868541 8.287829 -84.369656
47.041698 6.611487 -84.316546
45.888872 5.051913 -84.259868
45.201118 3.325750 -84.208281
44.629701 1.557914 -84.157969
43.279618 0.068998 -84.099130
42.440246 -1.602856 -84.045884
41.299950 -3.166918 -83.989342
39.654792 -4.031873 -83.938847
38.272605 -5.452901 -83.880916
37.611964 -7.134232 -83.830845
35.965758 -7.996968 -83.780379
34.521460 -9.286657 -83.724205
32.938413 -10.282951 -83.671953
31.430955 -11.439083 -83.617564
29.583889 -11.877085 -83.572779
28.233806 -13.366001 -83.513940
26.795198 -14.667722 -83.457604
24.787245 -14.765513 -83.417368
23.202021 -15.757202 -83.365178
21.524759 -16.554270 -83.315591
19.688787 -17.015730 -83.270492
18.143535 -18.091943 -83.217172
16.135582 -18.189734 -83.176936
14.161355 -18.358840 -83.135746
12.582377 -19.363737 -83.083379
11.037124 -20.439950 -83.030059
9.029171 -20.537741 -82.989823
7.021219 -20.635532 -82.949587
5.120688 -20.960477 -82.906313
3.468013 -21.809536 -82.856031
1.460060 -21.907327 -82.815795
-0.547893 -22.005117 -82.775559
-2.555846 -22.102908 -82.735322
-4.563799 -22.200699 -82.695086
-6.571751 -22.298490 -82.654850
-8.579704 -22.396281 -82.614614
3.577348 -46.298193 14.296800
1.978896 -45.324269 14.504613
-0.019400 -45.356152 14.719515
-2.017695 -45.388035 14.934416
-4.015991 -45.419918 15.149318
-6.014287 -45.451801 15.364220
-7.612738 -44.477877 15.572033
-9.611034 -44.509760 15.786935
-11.609330 -44.541643 16.001837
-13.250757 -43.675825 16.210412
-14.963473 -42.989333 16.420251
-16.804529 -42.625679 16.632365
-18.671637 -42.327561 16.844941
-20.401276 -41.683638 17.055080
-22.097069 -40.954576 17.264619
-23.598179 -39.735791 17.470707
-25.239768 -38.870379 17.679285
-26.952483 -38.183886 17.889124
-28.382467 -36.786181 18.093951
-29.991985 -35.840096 18.301960
-31.590436 -34.866172 18.509774
-33.237881 -34.015492 18.718456
-34.365294 -33.074712 18.874151
-34.981647 -31.323523 19.003713
-36.419688 -29.946088 19.208683
-37.424880 -28.935440 19.353675
-38.854863 -27.537735 19.558502
-39.585379 -25.836145 19.698625
-41.015362 -24.438440 19.903451
-41.450703 -22.608609 20.016269
-42.463904 -21.029831 20.182541
-42.487910 -19.021295 20.257308
-43.237962 -17.328192 20.399238
-43.525117 -15.433981 20.498348
-43.549122 -13.425444 20.573115
-43.573128 -11.416908 20.647882
-43.597134 -9.408371 20.722649
-43.621140 -7.399835 20.797416
-43.161775 -5.583873 20.813004
-42.670062 -3.780798 20.824631
-41.782632 -2.135376 20.787809
-41.093061 -0.411128 20.775212
-40.743902 1.448741 20.804292
-39.768819 3.059241 20.756740
-39.024346 4.761617 20.737421
-37.818653 6.280243 20.661635
-36.639119 7.226738 20.568118
-35.243085 8.669533 20.469028
-34.412327 10.063026 20.429282
-32.857857 11.134654 20.299725
-31.263195 12.112125 20.162440
-29.766167 13.318322 20.043929
-28.370134 14.761117 19.944839
-26.674478 15.501990 19.788133
-25.971016 17.193698 19.772865
-23.972720 17.225581 19.557963
-22.293972 18.006063 19.404509
-20.598316 18.746937 19.247803
-18.902660 19.487810 19.091097
-17.250726 20.331112 18.942799
-15.676161 21.355662 18.809378
-13.677865 21.387545 18.594476
-11.820413 21.749382 18.406658
-10.105003 22.443978 18.246154
-8.129479 22.529207 18.035631
-6.532141 23.500410 17.897831
-4.533845 23.532293 17.682930
-2.535550 23.564176 17.468028
-0.537254 23.596059 17.253126
1.461042 23.627942 17.038224
3.459338 23.659825 16.823323
5.457633 23.691708 16.608421
7.455929 23.723591 16.393519
9.241490 23.220339 16.182389
11.052677 22.781551 15.970804
13.050972 22.813434 15.755902
15.049268 22.845317 15.541001
16.657818 21.896795 15.333008
18.370534 21.210303 15.123169
20.244467 20.929352 14.910472
21.842918 19.955429 14.702659
23.791414 19.862039 14.488640
25.439666 19.013388 14.279944
26.934112 17.777841 14.073974
28.636568 17.065540 13.864317
30.359544 16.404856 13.654296
31.833471 15.117693 13.448690
33.502243 14.320659 13.239631
35.030374 13.169846 13.033064
35.945475 11.932576 12.889669
37.644922 11.212707 12.680065
38.704218 9.681567 12.510521
39.859626 8.249761 12.334155
40.831940 7.156410 12.189745
42.261923 5.758705 11.984919
42.992440 4.057115 11.844796
44.422423 2.659409 11.639969
45.152940 0.957819 11.499846
45.883456 -0.743772 11.359724
46.802828 -2.363313 11.202131
46.826834 -4.371850 11.127364
47.840035 -5.950627 10.961091
47.864041 -7.959164 10.886324
47.888046 -9.967700 10.811557
47.912052 -11.976237 10.736790
47.936058 -13.984773 10.662023
47.687168 -15.884589 10.620667
46.984981 -17.603811 10.634808
47.008986 -19.612347 10.560041
47.030695 -21.618638 10.485603
45.335723 -22.361114 10.642178
45.075830 -24.256546 10.602169
43.956580 -25.809611 10.667372
42.560546 -27.252405 10.766462
41.164512 -28.695200 10.865552
39.768479 -30.137994 10.964642
39.078907 -31.862243 10.977239
37.682873 -33.305037 11.076329
36.286839 -34.747832 11.175420
34.591183 -35.488705 11.332125
32.895527 -36.229578 11.488831
31.499493 -37.672373 11.587921
30.585676 -38.871282 11.643640
28.814644 -39.435573 11.814840
27.012814 -39.927714 11.991962
25.423332 -40.917319 12.128252
23.727675 -41.658193 12.284957
22.032019 -42.399066 12.441663
20.290820 -43.033246 12.607127
18.292524 -43.065129 12.822028
16.645429 -43.919765 12.969396
14.719663 -44.121561 13.170351
13.145097 -45.146111 13.303772
11.146801 -45.177994 13.518674
9.148505 -45.209877 13.733575
7.150209 -45.241760 13.948477
5.572626 -46.259241 14.082478
0.179028 -46.060092 13.113715
-1.404538 -45.075621 13.320298
-3.394446 -45.094344 13.534765
-5.384353 -45.113067 13.749233
-7.374261 -45.131789 13.963701
-9.364169 -45.150512 14.178169
-10.947734 -44.166041 14.384751
-12.937642 -44.184764 14.599219
-14.587433 -43.363792 14.807087
-16.511116 -43.219016 15.020270
-18.501023 -43.237739 15.234738
-19.279789 -41.698689 15.374236
-21.085767 -41.263318 15.585135
-22.716867 -40.915996 15.773963
-23.684818 -39.324221 15.935810
-25.660418 -39.307619 16.150000
-27.243984 -38.323149 16.356583
-28.791250 -37.249061 16.562462
-30.411116 -36.354207 16.769749
-31.908211 -35.156256 16.974654
-33.323028 -33.755172 17.177963
-34.737845 -32.354087 17.381271
-36.152662 -30.953002 17.584580
-37.567479 -29.551917 17.787888
-39.099826 -28.440997 17.993477
-39.695064 -27.036918 18.108284
-40.696451 -25.459412 18.273233
-41.409865 -23.759019 18.411464
-42.703701 -22.306308 18.603548
-43.538096 -20.657541 18.753003
-43.717525 -18.729282 18.841689
-44.720404 -17.152412 19.006777
-44.731350 -15.152256 19.079831
-44.742295 -13.152100 19.152885
-44.753241 -11.151945 19.225939
-44.764186 -9.151789 19.298993
-44.775132 -7.151633 19.372047
-43.829411 -5.539896 19.327713
-43.800559 -3.555899 19.395884
-43.144555 -1.826533 19.387100
-42.449823 -0.112891 19.373564
-41.840468 1.635414 19.370504
-41.060361 3.314392 19.346492
-39.869432 4.826571 19.272070
-38.966292 6.455597 19.232961
-37.566954 7.883159 19.132966
-36.167617 9.310722 19.032971
-34.768279 10.738285 18.932977
-33.368941 12.165847 18.832982
-31.969604 13.593410 18.732987
-30.275205 14.317087 18.575800
-28.826947 15.627946 18.466323
-27.181469 16.468327 18.318617
-25.681690 17.656280 18.199154
-24.087733 18.619567 18.061435
-22.393335 19.343245 17.904247
-20.546525 19.703336 17.717517
-18.973896 20.717502 17.583932
-17.310139 21.514277 17.432684
-15.411360 21.750392 17.235880
-13.838731 22.764559 17.102296
-11.848824 22.783281 16.887828
-9.858916 22.802004 16.673360
-7.869008 22.820727 16.458892
-6.258565 23.744685 16.317978
-4.306472 23.853616 16.110840
-2.316564 23.872339 15.896373
-0.326656 23.891061 15.681905
1.663251 23.909784 15.467437
3.653159 23.928507 15.252969
5.643067 23.947229 15.038502
7.632974 23.965952 14.824034
9.368886 23.357598 14.614495
11.206448 23.000204 14.402983
13.196356 23.018927 14.188516
14.779921 22.034456 13.981933
16.752116 22.009448 13.767809
18.353395 21.068708 13.560882
20.156404 20.626008 13.350041
21.858548 19.934288 13.141157
23.510434 19.118489 12.933248
25.262836 18.550848 12.723389
26.964980 17.859128 12.514505
28.667124 17.167408 12.305621
30.081941 15.766324 12.102313
31.496758 14.365239 11.899004
33.418171 14.214859 11.685866
34.652044 13.462297 11.525423
35.654923 11.885427 11.360335
36.615201 10.290378 11.199200
38.181316 9.262823 10.992956
39.652290 8.163490 10.794418
40.445576 6.497181 10.648777
41.654844 5.595137 10.485623
42.159732 3.805760 10.366740
43.574548 2.404675 10.163432
44.663481 0.864526 9.990360
45.001377 -0.996111 9.886970
45.677305 -2.712500 9.752218
46.428205 -4.396897 9.610509
46.691130 -6.289526 9.514076
46.702075 -8.289681 9.441022
46.713021 -10.289837 9.367968
46.723966 -12.289993 9.294914
46.734912 -14.290149 9.221860
46.287958 -16.104391 9.204993
45.760339 -17.885883 9.198023
45.603102 -19.817754 9.145606
44.785766 -21.481617 9.174187
43.800248 -23.077196 9.223404
42.814730 -24.672775 9.272621
42.119570 -26.386243 9.286209
40.843693 -27.863932 9.371055
40.025501 -29.527447 9.399740
39.330770 -31.241089 9.413276
37.532702 -31.717456 9.590559
35.941973 -32.688444 9.727651
34.969833 -33.740310 9.794959
33.552843 -35.125763 9.898375
32.153506 -36.553325 9.998370
30.669226 -37.778254 10.114829
28.764709 -38.000680 10.312745
27.106690 -38.811143 10.462881
25.670973 -40.151920 10.569928
23.976574 -40.875598 10.727116
22.388804 -41.853644 10.863635
20.816176 -42.867810 10.997219
18.826268 -42.886533 11.211687
16.903919 -43.066422 11.413060
15.263731 -43.919422 11.559739
13.273824 -43.938145 11.774207
11.525663 -44.533569 11.941816
9.711287 -44.971035 12.122259
7.721380 -44.989757 12.336727
6.147406 -46.000716 12.470572
4.158843 -46.022647 12.684779
2.168936 -46.041369 12.899247
3.298142 -23.883436 51.982127
1.658937 -22.971950 52.095621
-0.340874 -23.080852 52.190583
-2.187474 -22.756219 52.293418
-3.979891 -22.278268 52.399038
-5.979703 -22.387171 52.493999
-7.673091 -21.629002 52.604709
-9.618720 -21.584587 52.702455
-11.257925 -20.673101 52.815949
-13.158707 -20.501786 52.915999
-14.896942 -19.870518 53.024404
-16.645794 -19.269293 53.132263
-18.175352 -18.047546 53.251392
-19.877892 -17.315276 53.361631
-21.621435 -16.699029 53.469763
-23.364978 -16.082782 53.577895
-24.853534 -14.745012 53.699131
-26.597077 -14.128766 53.807263
-28.085632 -12.790996 53.928499
-29.574188 -11.453225 54.049735
-31.062743 -10.115455 54.170972
-32.551299 -8.777685 54.292208
-34.039854 -7.439915 54.413444
-34.838527 -5.771463 54.512365
-36.327083 -4.433693 54.633601
-36.831081 -2.623995 54.722990
-37.912046 -1.090855 54.831042
-38.033219 0.902343 54.908047
-39.098335 2.443081 55.015587
-40.179300 3.976221 55.123639
-40.284623 5.977016 55.200131
-40.389947 7.977811 55.276624
-40.495271 9.978606 55.353117
-40.438666 11.922358 55.419574
-39.686759 13.621171 55.442938
-39.792083 15.621966 55.519431
-39.302466 17.413178 55.559051
-37.964413 18.905506 55.546088
-38.064563 20.904479 55.622260
-36.724957 22.396260 55.609201
-36.106006 24.141910 55.640806
-34.766400 25.633691 55.627747
-34.025477 27.123857 55.644220
-32.478567 28.181416 55.605443
-31.859616 29.927067 55.637048
-30.520010 31.418848 55.623989
-28.938825 32.404612 55.580960
-27.404680 33.488907 55.543767
-25.842642 34.514778 55.503114
-24.336389 35.657496 55.469382
-22.834155 36.808634 55.436147
-21.268098 37.826086 55.394996
-19.268286 37.934988 55.300034
-17.827511 39.214858 55.274424
-16.199996 40.103578 55.225648
-14.665850 41.187873 55.188456
-12.666038 41.296775 55.093494
-10.822710 41.733450 55.017945
-9.132081 42.489972 54.961340
-7.155671 42.647893 54.869282
-5.598124 43.683169 54.829186
-3.598312 43.792072 54.734224
-1.598500 43.900974 54.639263
-0.064355 44.985269 54.602070
1.935457 45.094171 54.507109
3.935269 45.203074 54.412148
5.935081 45.311976 54.317186
7.934892 45.420878 54.222225
9.934704 45.529781 54.127264
11.859832 45.427354 54.028464
13.573721 44.727197 53.918808
15.573533 44.836099 53.823847
17.345449 44.300137 53.717173
19.212550 44.033516 53.615392
21.212362 44.142418 53.520430
22.851567 43.230932 53.406936
24.829596 43.278197 53.310856
26.490584 42.428349 53.198481
28.316682 42.045704 53.094592
30.060225 41.429457 52.986460
31.768805 40.714279 52.876532
33.408011 39.802793 52.763038
35.290854 39.580717 52.662065
36.779410 38.242947 52.540829
38.522953 37.626700 52.432697
40.011508 36.288930 52.311461
41.755051 35.672684 52.203329
43.243607 34.334914 52.082093
44.732162 32.997143 51.960856
46.220718 31.659373 51.839620
47.709273 30.321603 51.718384
49.439454 29.667546 51.609565
49.594292 27.721890 51.532590
51.050162 26.368453 51.412411
51.756222 24.655609 51.316486
52.647508 23.031550 51.214569
53.446181 21.363098 51.115649
54.244854 19.694646 51.016728
55.104441 18.055393 50.915837
55.209765 16.054598 50.839344
55.315088 14.053803 50.762851
55.420412 12.053008 50.686359
55.525736 10.052213 50.609866
55.631059 8.051418 50.533373
54.717224 6.409648 50.520045
54.822548 4.408853 50.443552
53.908713 2.767083 50.430223
53.200779 1.052779 50.404133
52.581827 -0.692871 50.372529
51.242222 -2.184652 50.385588
49.902616 -3.676434 50.398647
49.283665 -5.422084 50.367043
48.425703 -7.083537 50.350251
46.995832 -7.969809 50.389346
45.656226 -9.461590 50.402405
44.171484 -10.649365 50.433469
42.647739 -11.755446 50.469372
41.103193 -12.817954 50.507855
39.639253 -14.049302 50.536339
38.034902 -14.986544 50.582241
36.500757 -16.070839 50.619434
34.961884 -17.145233 50.657213
33.293003 -17.947307 50.711121
31.432654 -18.348331 50.788781
29.625965 -18.861750 50.859785
28.286359 -20.353531 50.872844
26.364552 -20.625823 50.958128
24.619320 -21.267974 51.021508
22.830594 -21.819020 51.090283
20.830782 -21.927922 51.185244
18.830971 -22.036824 51.280205
16.955967 -22.407153 51.359683
15.297013 -23.230022 51.412360
13.297202 -23.338924 51.507321
11.297390 -23.447826 51.602282
9.297578 -23.556729 51.697244
7.297766 -23.665631 51.792205
5.297954 -23.774533 51.887166
3.073713 -23.675475 50.650305
1.516372 -22.626647 50.764646
-0.487541 -22.563707 50.865932
-2.491453 -22.500767 50.967219
-4.300970 -22.008663 51.074188
-6.052706 -21.388998 51.182847
-7.988311 -21.175257 51.286130
-9.613959 -20.277229 51.398475
-11.359879 -19.644722 51.507303
-13.045662 -18.879455 51.617890
-14.732553 -18.116632 51.728444
-16.417230 -17.348921 51.839063
-18.293807 -17.004864 51.944072
-19.851147 -15.956035 52.058413
-21.474581 -15.053119 52.170822
-22.844591 -13.590723 52.290640
-24.523170 -12.809549 52.401437
-26.216159 -12.060189 52.511813
-27.586169 -10.597793 52.631630
-28.956179 -9.135397 52.751448
-30.326189 -7.673001 52.871265
-31.696199 -6.210605 52.991083
-33.066209 -4.748210 53.110900
-33.720669 -3.015420 53.204986
-35.090679 -1.553024 53.324803
-36.111537 0.041310 53.432065
-37.057051 1.664116 53.536617
-36.990626 3.669316 53.604778
-37.708521 5.378134 53.701144
-37.869715 7.297321 53.777490
-38.815229 8.920126 53.882042
-38.748804 10.925326 53.950203
-38.682378 12.930526 54.018364
-38.615952 14.935726 54.086525
-38.332026 16.842595 54.140433
-37.498573 18.501025 54.158328
-37.432148 20.506225 54.226489
-36.381194 22.066324 54.230130
-35.330241 23.626423 54.233772
-35.160474 25.521314 54.292895
-33.456346 26.255814 54.234838
-32.688563 27.943933 54.257036
-32.130338 29.726793 54.292968
-31.152996 31.320171 54.301434
-29.420067 31.978062 54.239223
-27.956117 33.351447 54.215800
-26.310878 34.242594 54.166234
-24.687358 35.191516 54.119801
-23.026311 36.040613 54.067956
-22.258527 37.728732 54.090154
-20.401551 38.056649 54.010056
-18.778031 39.005572 53.963623
-17.059743 39.702404 53.903523
-15.326814 40.360294 53.841313
-13.593886 41.018185 53.779103
-11.903560 41.789399 53.723035
-10.280040 42.738321 53.676602
-8.276128 42.675381 53.575315
-6.652608 43.624304 53.528882
-4.660267 43.592142 53.429264
-3.025176 44.510286 53.381162
-1.021264 44.447346 53.279875
0.982649 44.384406 53.178588
2.606168 45.333328 53.132155
4.610081 45.270388 53.030868
6.613993 45.207448 52.929582
8.617905 45.144508 52.828295
10.621818 45.081568 52.727008
12.625730 45.018628 52.625722
14.629642 44.955688 52.524435
16.224116 43.988836 52.411179
18.190896 43.843920 52.308807
20.194808 43.780980 52.207521
21.913014 43.087292 52.097882
23.756061 42.669211 51.991893
25.759974 42.606271 51.890606
27.317314 41.557443 51.776265
29.287697 41.420479 51.673998
30.878568 40.445674 51.560637
32.659265 39.889945 51.452825
34.345048 39.124678 51.342239
35.997162 38.285077 51.230668
37.716616 37.594143 51.121066
39.111843 36.187420 51.001985
40.772410 35.366480 50.890662
42.226525 34.089763 50.773303
43.828203 33.138817 50.660258
45.513987 32.373550 50.549671
46.898548 30.943277 50.430279
47.854231 29.875493 50.344999
49.224241 28.413097 50.225182
50.594251 26.950701 50.105364
52.096588 25.780440 49.989415
52.629305 24.337318 49.911668
53.588956 22.719855 49.806608
54.520334 21.091708 49.702564
55.465849 19.468902 49.598012
55.552337 17.521486 49.524352
56.344938 15.840897 49.425299
56.861257 14.055906 49.336182
57.224027 12.212892 49.252586
57.157601 10.207692 49.184425
57.091176 8.202492 49.116264
57.024750 6.197292 49.048103
56.958324 4.192092 48.979942
55.907371 2.631993 48.976301
55.840945 0.626793 48.908140
55.046584 -1.049311 48.887683
53.739038 -2.493405 48.900857
52.814851 -4.110815 48.888908
52.047067 -5.798934 48.866709
51.570705 -7.618804 48.825412
50.242522 -8.459677 48.861098
48.778572 -9.833062 48.884522
47.452700 -11.268872 48.898897
46.277860 -12.179072 48.924534
44.813910 -13.552457 48.947957
43.080982 -14.210348 49.010167
41.617032 -15.583733 49.033591
39.884103 -16.241623 49.095801
38.151175 -16.899514 49.158011
36.481386 -17.725358 49.211117
34.857867 -18.674281 49.257551
33.221369 -19.588680 49.305856
31.488440 -20.246570 49.368066
29.755512 -20.904461 49.430276
27.983395 -21.458108 49.498138
26.289656 -22.220242 49.554697
24.355963 -22.344090 49.645858
22.352051 -22.281150 49.747145
20.728531 -23.230073 49.793578
18.724619 -23.167133 49.894865
17.087058 -24.078705 49.943323
15.097187 -24.053115 50.042585
13.093275 -23.990175 50.143872
11.089362 -23.927235 50.245158
9.085450 -23.864295 50.346445
7.081537 -23.801355 50.447731
5.077625 -23.738415 50.549018
-18.421641 -58.701413 -44.947536
-19.938238 -57.596471 -44.807305
-21.933646 -57.461400 -44.626305
-23.929053 -57.326329 -44.445305
-25.445650 -56.221386 -44.305075
-27.441058 -56.086315 -44.124074
-29.361824 -55.800052 -43.949430
-30.953062 -54.846302 -43.802844
-32.948470 -54.711231 -43.621844
-34.465066 -53.606289 -43.481613
-36.316708 -53.180009 -43.312854
-37.977070 -52.366275 -43.160383
-39.624865 -51.527087 -43.008981
-41.489074 -51.126262 -42.839152
-43.005670 -50.021320 -42.698922
-44.587100 -49.047702 -42.553171
-46.241178 -48.221241 -42.401234
-48.034271 -47.676364 -42.237461
-49.887906 -47.254121 -42.068532
-51.203413 -45.741857 -41.945424
-52.857492 -44.915396 -41.793488
-54.172999 -43.403132 -41.670380
-56.096064 -43.121524 -41.495539
-57.481156 -41.750209 -41.366506
-58.796663 -40.237945 -41.243398
-60.167041 -38.836826 -41.115618
-61.766249 -37.899220 -40.968353
-63.081757 -36.386956 -40.845245
-64.716830 -35.521999 -40.694927
-65.329032 -33.803563 -40.634941
-66.644539 -32.291299 -40.511832
-67.435887 -30.601487 -40.435704
-68.661452 -29.241289 -40.321142
-69.485011 -27.950974 -40.243159
-70.800518 -26.438710 -40.120051
-72.042778 -24.901635 -40.003508
-72.709223 -23.169514 -39.938575
-72.794281 -21.240461 -39.925751
-73.680783 -19.582881 -39.841094
-73.766502 -17.654051 -39.828210
-75.082009 -16.141788 -39.705102
-75.318789 -14.264127 -39.678679
-75.183789 -12.260534 -39.685578
-76.070292 -10.602953 -39.600922
-75.935293 -8.599360 -39.607821
-75.800293 -6.595767 -39.614720
-75.665294 -4.592174 -39.621619
-75.530295 -2.588581 -39.628518
-74.619307 -0.971078 -39.706692
-74.294486 0.938070 -39.731026
-74.159487 2.941663 -39.737925
-73.058677 4.464720 -39.833534
-72.691191 6.352640 -39.861787
-71.822869 7.991371 -39.936042
-71.044202 9.674709 -40.002062
-69.621250 11.037486 -40.127260
-68.714282 12.656988 -40.205065
-67.890787 14.318023 -40.275202
-67.067293 15.979057 -40.345340
-65.560867 17.300302 -40.478205
-64.054442 18.621547 -40.611070
-62.548017 19.942791 -40.743935
-61.041591 21.264036 -40.876799
-59.535166 22.585280 -41.009664
-58.028741 23.906525 -41.142529
-56.278816 24.502566 -41.299364
-55.455322 26.163601 -41.369502
-53.745519 26.879136 -41.522387
-51.955473 27.355683 -41.683171
-51.025494 28.699580 -41.763791
-49.382053 29.612759 -41.910144
-47.723398 30.480623 -42.057994
-45.882204 30.804841 -42.223814
-44.132280 31.400883 -42.380648
-42.425894 32.126595 -42.533197
-40.774847 33.017116 -42.680299
-39.123799 33.907638 -42.827400
-37.376081 34.510251 -42.984018
-35.626156 35.106292 -43.140853
-33.826295 35.553610 -43.302603
-31.882808 35.573171 -43.478493
-30.179839 36.309060 -43.630705
-28.184432 36.173989 -43.811705
-26.533384 37.064510 -43.958807
-24.537976 36.929439 -44.139807
-22.886928 37.819961 -44.286908
-20.891520 37.684890 -44.467909
-18.902838 37.569849 -44.648247
-17.245065 38.440340 -44.796010
-15.249657 38.305269 -44.977011
-13.254249 38.170198 -45.158011
-11.258841 38.035127 -45.339011
-9.263433 37.900056 -45.520011
-7.612385 38.790577 -45.667113
-5.703729 38.479785 -45.840726
-4.100381 37.550564 -45.988343
-2.104973 37.415493 -46.169343
-0.453926 38.306014 -46.316445
1.385607 37.855205 -46.484173
3.058079 37.066001 -46.637675
5.053486 36.930930 -46.818676
6.686413 36.061624 -46.968811
8.565491 35.690917 -47.139906
10.560898 35.555846 -47.320906
12.556306 35.420775 -47.501907
14.318439 34.813186 -47.663044
16.068310 34.180761 -47.823137
17.626595 33.160263 -47.966917
19.580314 32.940748 -48.144368
21.096911 31.835806 -48.284598
22.927401 31.366681 -48.451556
24.581480 30.540220 -48.603493
26.125511 29.490850 -48.746059
27.889636 28.887297 -48.907366
29.637515 28.250837 -49.067289
31.536364 27.920177 -49.240068
32.851871 26.407913 -49.363176
34.187304 24.936010 -49.487981
36.160028 24.754990 -49.667049
37.475535 23.242727 -49.790157
38.791043 21.730463 -49.913265
40.732501 21.486112 -50.089672
41.376889 19.832872 -50.152399
43.030967 19.006411 -50.304336
44.652673 18.168984 -50.453371
45.278242 16.423018 -50.514640
46.932321 15.596556 -50.666577
48.412441 14.711170 -50.802922
49.179596 13.013163 -50.876882
50.185446 11.396009 -50.972236
51.088300 9.743967 -51.058358
52.403807 8.231704 -51.181466
52.997004 6.474772 -51.239835
54.312512 4.962508 -51.362943
55.628019 3.450244 -51.486051
56.221216 1.693312 -51.544419
56.390962 -0.207054 -51.564834
57.407609 -1.820551 -51.661155
58.163967 -3.522215 -51.734147
58.028968 -5.525808 -51.727248
58.915470 -7.183389 -51.811905
59.058085 -9.092946 -51.829888
59.666973 -10.844563 -51.889663
59.531974 -12.848156 -51.882764
59.396975 -14.851749 -51.875865
59.261975 -16.855342 -51.868966
58.436624 -18.515452 -51.798657
58.026167 -20.381992 -51.766457
57.891167 -22.385585 -51.759558
57.756168 -24.389179 -51.752659
57.191438 -26.178960 -51.706289
55.685013 -27.500205 -51.573424
55.419550 -29.438887 -51.554542
54.520004 -30.563581 -51.476095
53.257312 -31.900544 -51.365337
53.122312 -33.904137 -51.358438
51.763472 -34.694761 -51.237524
50.939978 -36.355795 -51.167386
49.859264 -37.888852 -51.073623
48.366559 -38.612871 -50.940414
46.860133 -39.934116 -50.807549
45.353708 -41.255360 -50.674684
43.847283 -42.576605 -50.541819
43.023788 -44.237640 -50.471682
41.517363 -45.558884 -50.338817
39.767438 -46.154925 -50.181982
38.261013 -47.476170 -50.049117
36.619554 -48.395249 -49.902960
34.761164 -48.668252 -49.735447
33.254738 -49.989497 -49.602583
31.504814 -50.585538 -49.445748
29.998389 -51.906783 -49.312883
28.248464 -52.502824 -49.156048
26.713267 -53.738378 -49.020351
24.992114 -54.420110 -48.866348
23.066811 -54.493829 -48.692249
21.248766 -54.886989 -48.528708
19.498841 -55.483030 -48.371873
17.769307 -56.139800 -48.217046
15.773900 -56.004729 -48.036046
14.122852 -56.895251 -47.888944
12.255644 -57.141991 -47.720564
10.476396 -57.650701 -47.560843
8.512295 -57.608870 -47.382924
6.829940 -58.406152 -47.232741
4.834532 -58.271081 -47.051741
3.019022 -58.671790 -46.888450
1.188077 -59.026531 -46.723639
-0.807331 -58.891460 -46.542639
-2.802739 -58.756389 -46.361639
-4.711174 -58.880345 -46.189200
-6.449195 -59.511839 -46.033537
-8.444602 -59.376768 -45.852537
-10.440010 -59.241697 -45.671537
-12.435418 -59.106626 -45.490536
-14.430826 -58.971555 -45.309536
-16.426234 -58.836484 -45.128536
-8.848583 -23.217363 -81.328686
-10.537092 -22.388303 -81.315204
-12.533316 -22.596568 -81.272723
-14.529539 -22.804833 -81.230242
-16.391769 -22.561397 -81.200388
-18.214272 -22.184039 -81.174279
-19.945775 -21.499914 -81.156745
-21.899005 -21.563244 -81.118316
-23.717368 -21.171931 -81.092596
-25.494372 -20.641190 -81.070775
-27.272247 -20.113389 -81.048871
-29.265965 -20.313207 -81.006626
-30.956980 -19.492595 -80.992908
-32.645490 -18.663535 -80.979426
-34.379388 -17.987483 -80.961667
-36.156391 -17.456741 -80.939845
-37.715807 -16.192500 -80.938529
-39.492810 -15.661759 -80.916708
-41.269814 -15.131017 -80.894886
-42.829230 -13.866776 -80.893570
-44.465055 -12.860114 -80.885053
-46.383236 -12.805293 -80.849927
-47.942653 -11.541052 -80.848611
-49.413924 -10.229031 -80.850033
-50.388865 -8.647973 -80.866869
-51.734632 -7.267922 -80.872188
-52.835076 -5.754893 -80.885127
-53.994319 -4.889292 -80.882491
-55.610221 -3.970669 -80.872385
-56.254006 -2.510662 -80.892794
-56.463130 -0.514490 -80.933414
-57.623484 0.966065 -80.944492
-58.591022 2.551136 -80.961558
-58.992963 4.442792 -80.996190
-59.691992 6.173409 -81.021595
-60.362442 7.919518 -81.047888
-60.571566 9.915691 -81.088508
-60.780691 11.911863 -81.129128
-60.989815 13.908036 -81.169748
-60.940934 15.827584 -81.213547
-60.370536 17.592249 -81.263769
-59.880881 19.380893 -81.312996
-59.751257 21.276462 -81.357789
-59.554471 23.152085 -81.403409
-58.290801 24.710858 -81.462171
-57.760774 26.487512 -81.511896
-57.230747 28.264167 -81.561621
-55.967078 29.822940 -81.620382
-55.437051 31.599595 -81.670107
-53.808474 32.485639 -81.720759
-52.544804 34.044412 -81.779520
-51.281134 35.603185 -81.838282
-50.017464 37.161958 -81.897044
-48.753795 38.720731 -81.955805
-47.125218 39.606775 -82.006457
-45.496641 40.492819 -82.057109
-44.232971 42.051592 -82.115870
-42.604394 42.937637 -82.166522
-40.975817 43.823681 -82.217174
-39.712148 45.382454 -82.275936
-38.001442 46.117089 -82.324762
-36.454994 47.154543 -82.377239
-34.525051 47.485001 -82.421194
-32.832933 48.253903 -82.470433
-31.048661 48.852914 -82.517625
-29.568494 50.012561 -82.571575
-27.572270 50.220826 -82.614056
-25.953719 51.125353 -82.664931
-24.095880 51.588738 -82.710488
-22.331658 52.224713 -82.758125
-20.619489 52.956651 -82.806919
-18.623266 53.164916 -82.849400
-16.627042 53.373181 -82.891882
-14.722630 53.750706 -82.936403
-13.150652 54.741094 -82.988313
-11.154428 54.949359 -83.030794
-9.345310 54.526880 -83.055642
-7.469695 54.328564 -83.086757
-5.473472 54.536830 -83.129238
-3.477249 54.745095 -83.171720
-1.481025 54.953360 -83.214201
0.207484 54.124300 -83.227683
2.203708 54.332566 -83.270164
3.964059 53.745690 -83.290416
5.888441 53.711771 -83.326127
7.884664 53.920036 -83.368608
9.573174 53.090976 -83.382090
11.289659 52.356224 -83.398208
13.257906 52.470181 -83.438053
15.061252 52.028241 -83.462357
16.942639 51.849387 -83.494016
18.615258 50.966758 -83.506000
20.319658 50.191267 -83.520979
22.008167 49.362207 -83.534461
23.728681 48.641034 -83.550959
25.505684 48.110293 -83.572781
27.073696 46.875026 -83.574907
29.028070 47.031670 -83.615442
29.946486 45.419972 -83.596850
31.505902 44.155731 -83.598166
33.065319 42.891489 -83.599482
34.559695 42.207549 -83.612526
35.732050 40.741798 -83.602006
36.833499 39.836571 -83.602662
38.392916 38.572330 -83.603978
39.279711 36.943492 -83.584404
40.839128 35.679251 -83.585720
41.725923 34.050413 -83.566146
42.621153 32.426147 -83.546834
43.781507 30.945592 -83.535757
44.941862 29.465038 -83.524679
45.150986 27.468865 -83.484059
45.487279 25.541625 -83.447388
46.520465 23.992139 -83.432361
46.729589 21.995966 -83.391740
46.938714 19.999794 -83.351120
46.110310 18.311753 -83.297720
46.319435 16.315580 -83.257100
46.528559 14.319408 -83.216479
45.700906 12.631144 -83.163089
45.909280 10.635195 -83.122459
45.374496 8.859953 -83.072676
44.252473 7.259113 -83.015659
43.580799 5.524525 -82.964189
43.050772 3.747871 -82.914464
41.787102 2.189098 -82.855703
40.938858 0.506949 -82.802058
40.517681 -0.978229 -82.760906
39.221029 -2.286654 -82.707111
38.203538 -3.354182 -82.663986
36.659673 -4.396398 -82.611452
35.311292 -5.799000 -82.554573
34.747842 -7.565728 -82.504436
32.801666 -7.814568 -82.461997
31.931462 -9.468721 -82.408562
30.423826 -10.073090 -82.366493
28.943659 -11.232737 -82.312543
27.372024 -12.223758 -82.260625
25.983324 -13.552031 -82.204643
23.987101 -13.760297 -82.162161
22.486293 -14.881892 -82.108670
21.026767 -16.079591 -82.054261
19.030543 -16.287856 -82.011780
17.550376 -17.447503 -81.957830
15.971986 -18.426069 -81.906063
14.073986 -18.815415 -81.861398
12.593819 -19.975062 -81.807448
10.597595 -20.183328 -81.764967
8.601372 -20.391593 -81.722486
6.605148 -20.599858 -81.680005
4.740897 -21.051422 -81.634590
3.128758 -21.967771 -81.583573
1.132534 -22.176036 -81.541092
-0.863689 -22.384301 -81.498611
-2.859913 -22.592567 -81.456130
-4.856136 -22.800832 -81.413648
-6.852359 -23.009097 -81.371167
