ply
format ascii 1.0
element vertex 1071
property float x
property float y
property float z
end_header
-1.964793 -35.871837 -9.292188
-3.457949 -34.743584 -9.083263
-5.446150 -34.577283 -8.840413
-7.218932 -33.992389 -8.612325
-8.927507 -33.282730 -8.388638
-10.915708 -33.116429 -8.145788
-12.823121 -32.793144 -7.908474
-14.107767 -31.259724 -7.713839
-15.890220 -30.693623 -7.485089
-17.383376 -29.565370 -7.276165
-19.371577 -29.399069 -7.033314
-20.996602 -28.527060 -6.815353
-22.357889 -27.142564 -6.615466
-24.265995 -26.820626 -6.378105
-25.839246 -25.848010 -6.163692
-27.332401 -24.719757 -5.954767
-28.825557 -23.591504 -5.745843
-30.454731 -22.727556 -5.527598
-32.089427 -21.874339 -5.308974
-33.374074 -20.340919 -5.114339
-35.008770 -19.487702 -4.895715
-36.293416 -17.954282 -4.701080
-37.784492 -16.821987 -4.492299
-39.128431 -16.107978 -4.312228
-40.122989 -14.481149 -4.149914
-41.407636 -12.947729 -3.955279
-42.692282 -11.414309 -3.760645
-43.615402 -10.331963 -3.621301
-44.162692 -8.561112 -3.508820
-45.371596 -7.570789 -3.337635
-45.633102 -5.707915 -3.256994
-47.127789 -4.809615 -3.053969
-47.827979 -3.087998 -2.924452
-48.388159 -1.321298 -2.810535
-49.737097 -0.376066 -2.623748
-49.565660 1.626216 -2.591344
-49.394224 3.628499 -2.558940
-50.247337 5.300873 -2.412384
-50.075901 7.303156 -2.379980
-50.650356 9.065259 -2.264472
-50.757578 10.977813 -2.201020
-50.586142 12.980095 -2.168616
-50.414705 14.982378 -2.136212
-50.243269 16.984660 -2.103807
-50.071832 18.986943 -2.071403
-49.445392 20.752924 -2.099819
-48.775071 22.496116 -2.134101
-48.414705 24.400279 -2.126951
-47.478311 26.005289 -2.196800
-46.709517 27.697339 -2.244245
-45.227663 29.019070 -2.387005
-45.004329 30.994400 -2.361538
-43.930902 32.528243 -2.449703
-42.805578 34.035133 -2.544806
-41.772047 35.589696 -2.627639
-40.139518 36.553058 -2.797950
-38.525684 37.476838 -2.967066
-37.406422 38.377352 -3.077482
-36.325002 39.907044 -3.166716
-34.967909 41.137284 -3.296934
-33.270218 41.893681 -3.480535
-31.743123 43.191916 -3.629343
-30.890529 44.840446 -3.687989
-29.216829 45.673040 -3.866698
-27.377498 45.979572 -4.079186
-25.850404 47.277808 -4.227994
-24.225577 48.265632 -4.396734
-22.337373 48.416934 -4.619190
-20.810279 49.715169 -4.767998
-18.909875 49.827726 -4.992942
-17.246125 50.691923 -5.169621
-15.540732 51.423859 -5.354793
-13.784216 51.993422 -5.550391
-11.930423 52.254017 -5.765829
-10.041764 52.403876 -5.988378
-8.278471 52.951914 -6.185359
-6.528733 53.543002 -6.379575
-4.626520 53.649811 -6.604888
-2.786281 53.953456 -6.817562
-0.974568 54.347707 -7.024417
0.726750 55.092583 -7.208758
2.677383 55.045604 -7.443947
4.665584 54.879303 -7.686797
6.653785 54.713003 -7.929648
8.641986 54.546702 -8.172498
10.630187 54.380402 -8.415348
12.293938 55.244599 -8.592027
14.282139 55.078298 -8.834878
16.270340 54.911998 -9.077728
18.258541 54.745697 -9.320579
20.064461 54.225195 -9.550937
21.739898 53.451144 -9.772353
23.728099 53.284843 -10.015204
25.716300 53.118542 -10.258054
27.653396 52.852936 -10.497402
29.197657 51.823989 -10.709829
30.922788 51.146502 -10.934651
32.679014 50.529435 -11.161604
34.667215 50.363135 -11.404454
36.176927 49.267055 -11.614513
37.811624 48.413838 -11.833137
39.641727 47.940329 -12.065153
41.431066 47.387607 -12.294375
43.123084 46.645775 -12.516927
44.700459 45.681173 -12.731623
46.335155 44.827956 -12.950247
47.969852 43.974739 -13.168872
49.590753 43.094716 -13.386550
51.083908 41.966463 -13.595474
52.577064 40.838210 -13.804398
54.158587 39.881669 -14.019379
55.563376 38.581705 -14.222247
57.077930 37.495032 -14.432637
58.549688 36.325199 -14.640095
59.997273 35.108396 -14.845896
61.281920 33.574976 -15.040531
62.566566 32.041556 -15.235165
63.851213 30.508136 -15.429800
65.414482 29.631920 -15.640466
66.046089 27.888219 -15.762342
67.330736 26.354800 -15.956976
67.973823 24.614796 -16.080131
68.826937 22.942421 -16.226687
69.762652 21.340269 -16.381291
70.583130 20.181247 -16.510353
71.206152 18.434783 -16.631272
71.766332 16.668083 -16.745190
72.117921 14.834216 -16.835867
72.886693 13.134683 -16.973025
72.799598 11.159559 -17.014827
73.652712 9.487184 -17.161382
73.481276 7.484902 -17.193786
73.309839 5.482619 -17.226191
73.138403 3.480337 -17.258595
72.966966 1.478054 -17.291000
72.795530 -0.524228 -17.323404
72.254249 -2.334436 -17.306371
71.498769 -4.033401 -17.260706
71.327332 -6.035683 -17.293110
70.370967 -7.630321 -17.220592
69.518373 -9.278851 -17.161946
68.905248 -11.051747 -17.135309
67.813186 -12.575912 -17.044652
66.654599 -14.065528 -16.945103
65.529275 -15.572419 -16.850001
64.580903 -17.171208 -16.778551
62.824388 -17.740771 -16.582953
61.971794 -19.389301 -16.524306
61.077945 -21.016406 -16.460145
59.469482 -21.946597 -16.291843
57.835590 -22.905629 -16.121254
56.308496 -24.203865 -15.972446
54.781401 -25.502100 -15.823638
53.024886 -26.071663 -15.628040
51.497791 -27.369898 -15.479232
49.970697 -28.668134 -15.330424
48.214181 -29.237697 -15.134826
46.483928 -29.890673 -14.944584
44.820178 -30.754871 -14.767905
43.174056 -31.675058 -14.594821
41.492677 -32.483265 -14.414547
39.661025 -32.814184 -14.203625
37.840726 -33.181162 -13.995018
36.147994 -33.953311 -13.812428
34.513225 -34.909557 -13.641660
32.525024 -34.743256 -13.398810
30.861273 -35.607453 -13.222131
28.873072 -35.441153 -12.979280
27.135995 -36.072454 -12.787646
25.221121 -36.139049 -12.559751
23.393542 -36.482909 -12.349660
21.569169 -36.836946 -12.140222
19.580968 -36.670645 -11.897371
17.592767 -36.504345 -11.654521
15.604566 -36.338044 -11.411670
13.922701 -37.144708 -11.231297
11.952614 -37.035941 -10.992141
9.964413 -36.869640 -10.749290
7.976212 -36.703340 -10.506440
5.988011 -36.537039 -10.263589
3.999810 -36.370738 -10.020739
2.011609 -36.204438 -9.777888
0.023408 -36.038137 -9.535038
-28.371168 -49.254510 -55.354277
-29.855122 -48.098557 -55.257628
-31.850434 -47.895678 -55.119329
-33.845746 -47.692799 -54.981030
-35.841057 -47.489920 -54.842731
-37.605824 -46.857348 -54.723210
-39.320324 -46.131087 -54.607783
-41.315635 -45.928208 -54.469484
-42.857350 -44.879910 -54.368130
-44.487331 -43.996122 -54.259587
-46.278856 -43.413422 -54.137887
-48.108877 -42.902472 -54.013051
-49.758122 -42.054589 -53.902939
-51.368838 -41.134896 -53.795965
-52.998819 -40.251108 -53.687422
-54.628799 -39.367320 -53.578880
-56.205297 -38.383849 -53.474693
-57.888761 -37.599744 -53.361794
-59.518741 -36.715956 -53.253251
-60.787138 -35.158243 -53.174160
-62.417118 -34.274455 -53.065617
-64.047099 -33.390667 -52.957074
-65.315495 -31.832954 -52.877982
-66.945476 -30.949166 -52.769440
-68.213872 -29.391452 -52.690348
-69.382016 -28.368683 -52.614964
-70.463438 -26.883428 -52.548502
-71.279881 -25.626096 -52.499165
-72.849946 -24.630636 -52.395503
-73.447084 -22.964561 -52.364028
-74.715480 -21.406847 -52.284936
-76.209050 -20.268816 -52.187504
-76.882683 -18.745312 -52.149799
-77.419905 -16.967565 -52.123205
-78.688301 -15.409852 -52.044113
-79.225523 -13.632105 -52.017519
-79.762745 -11.854357 -51.990924
-80.582312 -10.161577 -51.944058
-80.380783 -8.161516 -51.970504
-81.213291 -6.472630 -51.922709
-81.180459 -4.523336 -51.937044
-81.844270 -2.783683 -51.901360
-81.642741 -0.783622 -51.927807
-81.441213 1.216438 -51.954254
-81.239684 3.216499 -51.980700
-81.038155 5.216560 -52.007147
-79.885636 6.703613 -52.096938
-79.684107 8.703673 -52.123385
-79.156311 10.527731 -52.171563
-78.330059 12.190787 -52.239622
-78.066866 14.157583 -52.270176
-76.513465 15.428382 -52.386669
-75.632516 17.061933 -52.458371
-74.670972 18.652007 -52.535441
-73.518452 20.139060 -52.625232
-72.882694 21.605844 -52.678755
-71.272135 22.530381 -52.797107
-70.115687 23.400852 -52.883365
-68.562286 24.671652 -52.999858
-67.618587 26.095944 -53.074656
-65.908119 26.842960 -53.198900
-64.354719 28.113760 -53.315393
-63.457523 29.693130 -53.387896
-61.480736 29.552027 -53.525281
-59.927335 30.822827 -53.641774
-58.985591 32.253639 -53.716476
-57.053352 32.261094 -53.851663
-56.093781 33.852233 -53.928602
-54.202792 33.777472 -54.060396
-52.518348 34.611270 -54.183355
-50.833903 35.445068 -54.306314
-48.859717 35.312636 -54.443571
-47.154147 36.075987 -54.567573
-45.533098 37.121194 -54.687404
-43.785259 37.743582 -54.813491
-41.789947 37.540704 -54.951790
-40.105503 38.374501 -55.074750
-38.220412 38.539185 -55.207610
-36.425747 39.005420 -55.336008
-34.673977 39.614702 -55.462289
-32.745991 39.636339 -55.597266
-30.907725 39.957177 -55.727816
-29.066234 40.267258 -55.858525
-27.070923 40.064379 -55.996824
-25.148440 40.104369 -56.131529
-23.391167 40.695298 -56.258082
-21.395855 40.492419 -56.396381
-19.400543 40.289541 -56.534681
-17.405231 40.086662 -56.672980
-15.409919 39.883783 -56.811279
-13.414607 39.680904 -56.949578
-11.419295 39.478025 -57.087877
-9.423984 39.275146 -57.226176
-7.428672 39.072267 -57.364475
-5.440853 38.855421 -57.502164
-3.949406 37.713434 -57.599423
-1.954094 37.510555 -57.737723
0.041218 37.307676 -57.876022
1.802238 36.668121 -57.995238
3.432219 35.784333 -58.103780
5.004439 34.792890 -58.207619
6.999750 34.590011 -58.345918
8.683745 33.806895 -58.458860
10.479017 33.231179 -58.580866
11.962971 32.075225 -58.677515
13.935271 31.829457 -58.813940
15.442237 30.716392 -58.912463
16.926191 29.560438 -59.009112
18.463629 28.504168 -59.110117
20.093610 27.620380 -59.218660
21.889412 27.045652 -59.340709
23.373366 25.889698 -59.437357
24.252377 24.748983 -59.491791
25.759874 23.636907 -59.590357
27.755185 23.434028 -59.728656
28.411145 21.877585 -59.764922
29.837765 20.932600 -59.858864
30.578348 19.216050 -59.900059
32.208328 18.332263 -60.008602
33.476725 16.774549 -60.087694
34.745121 15.216835 -60.166785
36.013517 13.659122 -60.245877
37.281913 12.101408 -60.324968
37.819135 10.323661 -60.351563
39.316452 9.192613 -60.449300
39.515852 7.520542 -60.452920
40.348360 5.831656 -60.500715
41.060782 4.106632 -60.539889
42.013375 2.453883 -60.596306
42.845883 0.764997 -60.644102
42.672448 -1.226609 -60.619672
43.476862 -2.923950 -60.665451
43.746892 -4.782103 -60.672861
44.107841 -6.612897 -60.686799
43.906312 -8.612957 -60.660353
43.704784 -10.613018 -60.633906
43.503255 -12.613079 -60.607459
43.301726 -14.613139 -60.581013
42.903241 -16.506953 -60.541447
41.947678 -18.100253 -60.464775
41.746149 -20.100314 -60.438328
40.593630 -21.587367 -60.348538
40.051898 -23.403906 -60.299430
39.239582 -25.074480 -60.232300
38.290000 -26.671007 -60.156027
37.253295 -27.785144 -60.076639
35.840745 -28.952855 -59.970634
34.754885 -30.475867 -59.885283
33.873936 -32.109417 -59.813581
32.881456 -33.371036 -59.736376
31.289389 -34.318282 -59.619177
30.986238 -36.193540 -59.586393
29.238056 -36.814786 -59.460289
27.464838 -37.352544 -59.332949
25.911437 -38.623344 -59.216456
24.693245 -40.074970 -59.122291
23.257271 -40.794652 -59.017414
21.484054 -41.332411 -58.890075
19.776529 -42.089241 -58.765976
18.092085 -42.923039 -58.643017
16.384218 -43.678726 -58.518902
14.723196 -44.590634 -58.397099
12.837783 -44.754243 -58.264222
11.064565 -45.292001 -58.136883
9.358996 -46.055351 -58.012881
7.518131 -46.367517 -57.882203
5.964730 -47.638317 -57.765710
3.994796 -47.520068 -57.628663
2.310352 -48.353866 -57.505704
0.425261 -48.518550 -57.372844
-1.369404 -48.984785 -57.244446
-3.121174 -49.594066 -57.118164
-4.894392 -50.131824 -56.990824
-6.733605 -50.449502 -56.860228
-8.728917 -50.246623 -56.721929
-10.724229 -50.043744 -56.583630
-12.719540 -49.840865 -56.445330
-14.639746 -49.888450 -56.310737
-16.399296 -50.471784 -56.184072
-18.394608 -50.268905 -56.045773
-20.389920 -50.066026 -55.907474
-22.385232 -49.863147 -55.769175
-24.380544 -49.660268 -55.630875
-26.375856 -49.457389 -55.492576
-19.988590 -53.219927 -57.192696
-21.663491 -52.369947 -57.080803
-23.658157 -52.553648 -56.940162
-25.652823 -52.737349 -56.799520
-27.327723 -51.887369 -56.687627
-29.322389 -52.071070 -56.546986
-31.041247 -51.363189 -56.431140
-32.991955 -51.404792 -56.294451
-34.800835 -50.987918 -56.170512
-36.661522 -50.738513 -56.041916
-38.336422 -49.888533 -55.930023
-40.327164 -50.059549 -55.789735
-42.005988 -49.222254 -55.677489
-43.680889 -48.372274 -55.565595
-45.627384 -48.400257 -55.429285
-47.350455 -47.705995 -55.313061
-49.025355 -46.856015 -55.201167
-50.701496 -46.010043 -55.089163
-52.375156 -45.156055 -54.977381
-54.050057 -44.306075 -54.865488
-55.775607 -43.619828 -54.749041
-57.399858 -42.606115 -54.641701
-59.082979 -41.782711 -54.529069
-60.623611 -40.498691 -54.429247
-62.288148 -39.891681 -54.316578
-63.255440 -38.305226 -54.258723
-65.022180 -37.752128 -54.138573
-66.562812 -36.468108 -54.038751
-67.427901 -34.827741 -53.988377
-68.968533 -33.543721 -53.888555
-70.509164 -32.259700 -53.788733
-71.374253 -30.619333 -53.738359
-72.914885 -29.335313 -53.638537
-73.445098 -27.518298 -53.612675
-74.584576 -26.022670 -53.542217
-75.510153 -24.414210 -53.487415
-76.375242 -22.773842 -53.437042
-77.047648 -21.031834 -53.400772
-77.231764 -19.032255 -53.400243
-78.294967 -17.496391 -53.335368
-78.555358 -15.537047 -53.329257
-78.739475 -13.537467 -53.328728
-78.923591 -11.537887 -53.328200
-78.437346 -9.746950 -53.373268
-78.260504 -7.859714 -53.397292
-78.444621 -5.860134 -53.396763
-78.242856 -3.980655 -53.422482
-77.691857 -2.209871 -53.471955
-76.934330 -0.503367 -53.535475
-76.589860 1.331696 -53.570900
-76.271243 3.174807 -53.604567
-75.487862 4.873264 -53.669845
-74.936863 6.644048 -53.719318
-73.656612 8.187861 -53.818393
-72.376360 9.731674 -53.917468
-71.722974 11.307533 -53.972898
-70.189332 12.368937 -54.086716
-69.638333 14.139721 -54.136188
-68.002304 15.006200 -54.255963
-66.722052 16.550012 -54.355038
-65.441801 18.093825 -54.454113
-63.858878 19.061409 -54.570798
-62.525520 20.504117 -54.672963
-60.889491 21.370596 -54.792738
-59.609239 22.914409 -54.891813
-57.973210 23.780888 -55.011588
-56.401272 24.769385 -55.127634
-54.909751 25.910980 -55.239001
-53.418230 27.052575 -55.350368
-51.784871 27.924138 -55.469988
-50.148842 28.790617 -55.589762
-48.440522 29.519467 -55.713744
-46.521007 29.846242 -55.850012
-44.954335 30.844763 -55.965752
-43.462814 31.986358 -56.077119
-41.612921 32.445680 -56.209337
-39.976627 33.311654 -56.329128
-37.985086 33.501304 -56.469587
-36.490440 34.636951 -56.581136
-34.495774 34.820652 -56.721777
-32.501108 35.004353 -56.862419
-30.506442 35.188054 -57.003060
-29.014921 36.329649 -57.114427
-27.020255 36.513350 -57.255069
-25.025589 36.697051 -57.395710
-23.030923 36.880752 -57.536351
-21.036257 37.064453 -57.676993
-19.041592 37.248154 -57.817634
-17.046926 37.431855 -57.958275
-15.052260 37.615556 -58.098917
-13.057594 37.799258 -58.239558
-11.129154 37.768876 -58.374246
-9.388028 37.132979 -58.492093
-7.393362 37.316680 -58.632734
-5.398696 37.500381 -58.773376
-3.609977 37.018333 -58.895501
-1.729129 36.834102 -59.025910
0.149612 36.643061 -59.156129
1.940437 36.167823 -59.278445
3.909200 36.267790 -59.416757
5.610003 35.501544 -59.530979
7.284904 34.651564 -59.642873
8.983312 33.877575 -59.756879
10.954470 33.985285 -59.895407
12.742900 33.502303 -60.017507
14.304271 32.285325 -60.119194
16.276380 32.396109 -60.257807
17.817012 31.112089 -60.357629
19.648738 30.769066 -60.483622
20.674949 29.649547 -60.548481
22.416653 29.015517 -60.666380
24.208429 28.543352 -60.788781
25.749061 27.259332 -60.888603
27.441354 26.465577 -61.002060
29.056433 25.422215 -61.108575
30.597064 24.138195 -61.208397
32.058309 23.423949 -61.306185
33.228894 21.944730 -61.378921
34.769525 20.660710 -61.478743
36.310157 19.376690 -61.578565
37.175246 17.736322 -61.628939
38.715878 16.452302 -61.728761
39.850537 14.954132 -61.798867
41.121599 13.527914 -61.878957
42.129493 11.962876 -61.939783
42.851777 10.247179 -61.979704
43.453087 8.467668 -62.010770
43.637203 6.468088 -62.011299
44.771502 4.969728 -62.081378
44.960797 2.972880 -62.082285
45.826138 1.332645 -62.132678
46.284391 -0.522328 -62.153272
46.468508 -2.521907 -62.153800
46.652624 -4.521487 -62.154329
45.805421 -6.200081 -62.084709
45.989537 -8.199661 -62.085237
46.173653 -10.199240 -62.085765
46.185482 -12.145197 -62.074575
44.905230 -13.689010 -61.975500
44.663363 -15.556008 -61.947054
44.532486 -17.457549 -61.926157
43.972320 -19.210882 -61.876151
42.345458 -20.094812 -61.756909
42.252159 -22.008050 -61.738568
41.243461 -23.636380 -61.657964
39.963209 -25.180193 -61.558889
38.682957 -26.724005 -61.459814
37.776181 -27.817456 -61.389641
36.495929 -29.361269 -61.290566
35.215677 -30.905081 -61.191491
33.935425 -32.448894 -61.092416
32.312200 -33.339748 -60.973386
31.019145 -34.859186 -60.873567
29.383116 -35.725665 -60.753792
28.102864 -37.269477 -60.654717
27.431145 -38.810433 -60.598220
25.436479 -38.994135 -60.457579
23.924030 -40.095886 -60.344994
23.035323 -41.223736 -60.275873
21.381225 -42.055816 -60.155046
19.745196 -42.922295 -60.035271
18.057615 -43.690627 -59.912497
16.117361 -43.977920 -59.775022
14.571428 -45.015923 -59.660489
13.079906 -46.157518 -59.549121
11.085241 -46.341220 -59.408480
9.573246 -47.443837 -59.295922
7.599053 -47.666516 -59.156472
6.107532 -48.808111 -59.045105
4.112866 -48.991812 -58.904463
2.621345 -50.133407 -58.793096
0.626679 -50.317108 -58.652455
-0.954482 -51.288045 -58.535872
-2.859508 -51.642405 -58.400446
-4.681400 -51.267593 -58.275338
-6.529074 -50.976126 -58.147912
-8.037754 -52.085053 -58.035546
-10.015261 -52.301422 -57.895903
-12.009927 -52.485123 -57.755262
-14.004593 -52.668824 -57.614620
-15.999259 -52.852525 -57.473979
-17.993924 -53.036226 -57.333338
13.566445 -25.777895 39.001376
12.086775 -24.618352 39.153627
10.090230 -24.409814 39.307847
8.093685 -24.201276 39.462067
6.614014 -23.041733 39.614318
4.617469 -22.833195 39.768538
2.712844 -22.455531 39.922407
1.141253 -21.465114 40.075009
-0.338417 -20.305571 40.227260
-2.334962 -20.097033 40.381480
-3.814633 -18.937490 40.533731
-5.783595 -18.678202 40.687846
-7.044301 -17.115782 40.839264
-8.670492 -16.225824 40.992073
-10.250191 -15.250323 41.144706
-11.729861 -14.090780 41.296957
-13.209532 -12.931237 41.449209
-14.077477 -11.775661 41.556472
-15.587969 -10.672827 41.708841
-16.964373 -9.323283 41.860699
-18.225079 -7.760863 42.012117
-19.485785 -6.198442 42.163534
-20.746491 -4.636022 42.314952
-21.274902 -2.855734 42.420922
-22.535608 -1.293314 42.572340
-23.822762 -0.302488 42.704108
-23.609124 1.698570 42.764026
-24.431107 3.391517 42.888216
-24.282446 5.373243 42.952166
-25.543152 6.935663 43.103583
-25.861435 8.778467 43.196513
-25.647797 10.779525 43.256430
-25.434159 12.780583 43.316347
-25.220522 14.781640 43.376265
-25.006884 16.782698 43.436182
-23.886183 18.290588 43.410987
-23.631894 20.269544 43.467090
-22.470543 21.755332 43.438081
-22.256905 23.756390 43.497998
-21.095553 25.242178 43.468989
-20.762953 27.178556 43.517744
-19.032817 27.876684 43.417295
-17.673657 29.117324 43.364527
-16.529163 30.612278 43.337100
-14.966328 31.879781 43.270418
-13.403493 33.147284 43.203736
-12.344452 34.213032 43.166362
-10.517118 34.580366 43.046295
-8.954283 35.847868 42.979613
-7.268768 36.697856 42.888170
-5.613192 37.649737 42.802770
-3.884978 38.354405 42.702709
-2.193083 39.182680 42.609978
-0.493847 39.985971 42.515766
1.284408 40.520337 42.405605
3.187252 40.630690 42.270298
4.879147 41.458965 42.177567
6.834593 41.390296 42.031643
8.567587 42.078701 41.930617
10.564131 41.870163 41.776397
12.256026 42.698438 41.683667
14.252571 42.489900 41.529447
16.156709 42.595850 41.393878
17.941011 43.109636 41.282497
19.937556 42.901098 41.128277
21.934101 42.692560 40.974058
23.915990 42.533901 40.822796
25.622541 43.312296 40.727107
27.370386 42.646172 40.573835
29.098756 41.944215 40.420636
31.095301 41.735677 40.266417
33.091846 41.527139 40.112197
34.606120 40.431263 39.959814
36.568062 40.159058 39.805726
38.564607 39.950520 39.651506
40.044278 38.790977 39.499255
42.040822 38.582439 39.345035
43.520493 37.422896 39.192784
45.517038 37.214358 39.038564
47.085912 36.218942 38.885973
48.712103 35.328983 38.733163
50.472925 34.686734 38.579841
51.964485 33.549067 38.427545
53.432266 32.367648 38.275338
54.911937 31.208106 38.123087
56.477573 30.206730 37.970508
57.871279 28.889020 37.818584
59.364469 27.754352 37.666281
60.990660 26.864394 37.513471
62.251366 25.301973 37.362054
63.789962 24.250848 37.209578
64.405969 22.631727 37.103274
65.759188 21.660556 36.967406
66.560571 19.961481 36.844494
67.088983 18.181193 36.738524
68.225136 16.581717 36.594836
68.878100 14.838485 36.481136
69.406512 13.058198 36.375166
69.655463 11.194766 36.286539
70.463335 9.497622 36.163225
70.263808 7.500762 36.102432
70.055571 5.501311 36.042179
70.872153 3.806758 35.918325
70.658515 1.805700 35.858407
69.497164 0.319912 35.887417
69.283526 -1.681146 35.827499
69.069888 -3.682203 35.767582
68.012634 -5.224589 35.786824
67.694899 -7.169049 35.736674
66.227234 -8.488296 35.794426
65.334534 -10.120149 35.798227
64.210843 -11.626414 35.823702
62.878999 -13.019506 35.868710
61.316164 -14.287008 35.935391
60.423464 -15.918862 35.939192
58.860629 -17.186365 36.005874
57.082373 -17.720730 36.116035
55.519538 -18.988233 36.182717
53.863028 -19.936932 36.268306
52.178448 -20.790101 36.359560
51.039852 -22.288262 36.386434
49.368248 -22.482430 36.501626
47.676354 -23.310705 36.594357
45.735563 -23.291915 36.737323
44.172728 -24.559417 36.804005
42.394473 -25.093783 36.914166
40.604124 -25.586990 37.026768
38.837962 -26.162514 37.134488
36.915684 -26.206727 37.273718
34.919139 -25.998189 37.427938
33.227244 -26.826463 37.520669
31.230699 -26.617925 37.674888
29.234154 -26.409387 37.829108
27.522172 -27.169296 37.925893
25.545715 -27.029123 38.076058
23.549170 -26.820585 38.230278
21.552625 -26.612047 38.384497
19.556080 -26.403509 38.538717
17.559535 -26.194971 38.692937
15.562990 -25.986433 38.847156
17.337020 -23.933595 37.534907
15.655370 -23.105089 37.689460
13.663593 -23.313465 37.827584
11.671817 -23.521841 37.965708
9.814994 -23.279012 38.110982
7.998391 -22.901711 38.258386
6.053981 -22.951720 38.399019
4.324965 -22.281581 38.551063
2.643315 -21.453074 38.705617
0.741401 -21.361003 38.848501
-1.030112 -20.832944 38.998294
-2.800320 -20.300525 39.148156
-4.703538 -20.212814 39.290972
-5.669980 -18.875544 39.412317
-7.440841 -18.345305 39.562144
-9.167262 -17.666488 39.714326
-10.763269 -16.551641 39.873417
-12.530562 -16.009476 40.023433
-13.413637 -14.393473 40.149195
-15.312636 -14.291657 40.292234
-16.994286 -13.463151 40.446787
-17.929878 -12.370848 40.556619
-18.933666 -10.810326 40.689133
-20.235694 -9.411558 40.837399
-21.364742 -7.918972 40.976529
-22.916310 -6.655547 41.137974
-23.795818 -5.027619 41.263925
-24.847327 -3.492979 41.398960
-26.000236 -2.013334 41.539350
-26.202708 -0.018204 41.629543
-27.313850 1.484094 41.767727
-27.558088 3.456570 41.860127
-27.760560 5.451700 41.950321
-27.963032 7.446829 42.040514
-28.165505 9.441959 42.130708
-27.655204 11.224856 42.160641
-27.536455 13.124340 42.223677
-27.738927 15.119470 42.313871
-26.907406 16.806722 42.316647
-26.250007 18.545820 42.334143
-25.715921 20.321636 42.362065
-25.181836 22.097452 42.389987
-23.916607 23.655565 42.356095
-22.651378 25.213679 42.322204
-21.386149 26.771792 42.288312
-20.120920 28.329906 42.254420
-18.674735 29.551850 42.194568
-17.228528 30.773754 42.134713
-16.465121 32.481287 42.143247
-14.816187 32.968836 42.040797
-13.440117 34.321037 41.991003
-11.856337 35.287365 41.911411
-10.376413 36.446629 41.846719
-8.896488 37.605894 41.782026
-7.293400 38.536353 41.699665
-5.424787 38.973534 41.579210
-3.944862 40.132798 41.514517
-2.411912 41.193555 41.442218
-0.473161 41.500439 41.311701
1.518615 41.708815 41.173577
2.998540 42.868079 41.108884
4.990316 43.076455 40.970760
6.470241 44.235719 40.906068
8.462017 44.444095 40.767944
10.453793 44.652471 40.629820
12.445569 44.860847 40.491696
14.437346 45.069223 40.353572
16.429122 45.277599 40.215448
18.420898 45.485975 40.077324
20.412674 45.694351 39.939200
22.404451 45.902727 39.801076
24.396227 46.111103 39.662952
26.138859 45.486485 39.511630
28.069653 45.490973 39.370275
29.899871 45.159193 39.223592
31.743079 44.870843 39.077598
33.660884 44.831902 38.935555
35.416506 44.250712 38.784920
37.408282 44.459088 38.646796
39.089932 43.630582 38.492243
40.771582 42.802076 38.337689
42.515185 42.180706 38.186418
44.445008 42.181946 38.045012
46.056906 41.120228 37.886763
47.808308 40.524933 37.735904
49.489958 39.696427 37.581351
51.171608 38.867921 37.426797
52.248994 37.901583 37.311330
53.800562 36.638157 37.149885
55.571423 36.107918 37.000057
57.122990 34.844493 36.838612
58.674558 33.581067 36.677168
60.226126 32.317642 36.515723
61.105634 30.689714 36.389772
62.090538 29.118949 36.258255
63.536710 27.798360 36.102376
64.416218 26.170432 35.976426
65.549262 24.680014 35.837085
66.702171 23.200369 35.696695
66.904643 21.205239 35.606501
67.107115 19.210110 35.516307
68.141698 17.666290 35.382166
68.462495 15.735336 35.285724
68.664967 13.740206 35.195530
67.833446 12.052954 35.192754
68.035918 10.057824 35.102561
68.238390 8.062695 35.012367
67.406869 6.375443 35.009591
66.843586 4.608321 34.984138
66.309500 2.832505 34.956216
65.775415 1.056690 34.928294
64.510186 -0.501424 34.962185
63.249262 -2.060819 34.995713
62.710872 -3.835353 34.968155
61.445643 -5.393467 35.002047
59.896130 -6.423454 35.076723
58.830098 -7.919747 35.098349
57.657232 -8.940750 35.145756
56.037581 -9.840440 35.230494
54.764840 -11.384598 35.265464
53.137678 -12.270332 35.351279
51.597807 -13.318233 35.424572
50.117883 -14.477497 35.489264
48.618123 -15.599914 35.556802
46.990960 -16.485648 35.642618
45.166257 -17.004402 35.756773
43.686332 -18.163666 35.821466
42.109472 -19.142850 35.900065
40.214631 -19.531307 36.024282
38.222855 -19.739683 36.162406
36.742930 -20.898947 36.227099
34.751154 -21.107323 36.365223
32.887857 -21.554381 36.484915
31.279453 -22.474963 36.568039
29.287677 -22.683339 36.706163
27.295901 -22.891715 36.844287
25.304124 -23.100091 36.982411
23.312348 -23.308467 37.120535
21.320572 -23.516843 37.258659
19.328796 -23.725219 37.396783
-17.920806 -35.365012 28.749855
-19.408414 -34.225462 28.931686
-21.400278 -34.043609 29.124254
-23.392143 -33.861756 29.316822
-25.161734 -33.257756 29.504658
-26.871615 -32.540353 29.691221
-28.782198 -32.204128 29.882059
-30.351087 -31.218950 30.065620
-32.342951 -31.037097 30.258189
-33.830559 -29.897547 30.440019
-35.318166 -28.757998 30.621850
-36.941949 -27.877075 30.806580
-38.797638 -27.436595 30.996249
-40.205849 -26.146254 31.176389
-41.772853 -25.157496 31.359910
-42.867205 -24.227242 31.497156
-44.016767 -22.645340 31.664226
-45.648717 -21.779929 31.849131
-46.924104 -20.237325 32.026442
-48.199490 -18.694721 32.203754
-49.474877 -17.152117 32.381066
-50.033445 -15.385632 32.500034
-51.297281 -13.839420 32.676406
-51.844299 -12.069327 32.794434
-53.119685 -10.526723 32.971746
-53.400938 -8.673625 33.068143
-53.485352 -6.759050 33.148520
-54.054615 -4.995905 33.268359
-53.866419 -2.996187 33.326547
-54.708293 -1.318185 33.468574
-54.520097 0.681533 33.526763
-53.379421 2.178532 33.477122
-53.191225 4.178251 33.535310
-52.870069 6.107793 33.578446
-51.862353 7.674968 33.543858
-51.674157 9.674687 33.602046
-50.265978 11.030497 33.522122
-49.392805 12.668684 33.502766
-47.856412 13.956823 33.408327
-46.988382 15.597725 33.389552
-45.446846 16.883150 33.294531
-43.905311 18.168574 33.199510
-42.363775 19.453999 33.104489
-41.462296 20.985914 33.078469
-39.505987 20.919910 32.893602
-37.795508 21.654878 32.761986
-36.120585 22.505695 32.638071
-34.433157 23.315768 32.511448
-32.770739 24.207328 32.390242
-31.095816 25.058145 32.266327
-29.360328 25.711627 32.129294
-27.429028 25.727109 31.949845
-25.754105 26.577926 31.825930
-23.762240 26.396073 31.633362
-22.073628 27.202286 31.506482
-20.095453 27.065036 31.316879
-18.103588 26.883183 31.124310
-16.428665 27.734000 31.000396
-14.436800 27.552147 30.807828
-12.444936 27.370293 30.615259
-10.453071 27.188440 30.422691
-8.461207 27.006587 30.230123
-6.973599 25.867037 30.048292
-4.981735 25.685184 29.855724
-2.989870 25.503331 29.663155
-1.074260 25.176652 29.472211
0.489602 24.181928 29.288756
2.481467 24.000075 29.096188
4.178154 23.257614 28.909905
5.960939 22.678672 28.721789
7.448546 21.539122 28.539958
9.074004 20.661382 28.355192
10.705954 19.795971 28.170288
12.337905 18.930560 27.985384
13.903233 17.938620 27.801898
15.245241 16.522546 27.623168
16.877191 15.657135 27.438263
18.366055 14.519972 27.256406
19.056159 13.021632 27.135331
20.331546 11.479028 26.958019
21.606932 9.936423 26.780707
22.882319 8.393819 26.603396
24.040865 6.814723 26.435594
24.704723 5.081122 26.308055
25.724611 3.458720 26.151539
25.798758 1.540937 26.071998
26.378289 -0.219000 25.951324
26.892794 -1.999248 25.835941
27.031966 -3.896721 25.751108
26.843770 -5.896439 25.692920
26.655574 -7.896158 25.634732
26.467379 -9.895876 25.576543
26.279183 -11.895595 25.518355
26.090987 -13.895313 25.460167
24.950311 -15.392312 25.509807
24.619661 -17.316843 25.467746
23.621439 -18.889029 25.501260
22.480763 -20.386028 25.550900
21.342065 -21.884071 25.600316
20.474035 -23.524972 25.619091
19.058735 -24.877025 25.699821
18.064469 -26.451299 25.732887
16.298822 -27.006516 25.876453
14.757286 -28.291940 25.971474
12.991639 -28.847157 26.115041
11.413495 -30.013303 26.217992
9.684457 -30.687799 26.353629
7.918810 -31.243016 26.497195
6.153163 -31.798233 26.640762
4.396861 -32.383900 26.782304
2.721938 -33.234717 26.906219
1.047015 -34.085534 27.030133
-0.944849 -33.903680 27.222702
-2.675072 -34.574317 27.358595
-4.611637 -34.572644 27.539184
-6.286560 -35.423461 27.663099
-8.278425 -35.241608 27.855667
-10.270289 -35.059754 28.048236
-12.262154 -34.877901 28.240804
-14.165401 -34.984786 28.414176
-15.928941 -35.546865 28.557287
-13.930188 -38.510482 27.235467
-15.605533 -37.676110 27.423241
-17.594863 -37.877541 27.601057
-19.449212 -37.633685 27.783155
-21.259537 -37.244599 27.966648
-23.202567 -37.293294 28.145933
-24.924211 -36.611657 28.332239
-26.733902 -36.220481 28.515752
-28.588885 -35.978715 28.697829
-30.265238 -35.147667 28.885571
-31.939575 -34.309970 29.073378
-33.614920 -33.475597 29.261152
-35.604249 -33.677028 29.438968
-36.655429 -32.639879 29.576237
-38.199077 -31.371049 29.768188
-39.964745 -30.834642 29.953098
-41.508392 -29.565812 30.145048
-42.891206 -28.823221 30.302077
-44.145228 -27.398414 30.472936
-45.688876 -26.129584 30.664887
-46.560044 -24.498594 30.807864
-48.103692 -23.229764 30.999815
-48.974860 -21.598773 31.142793
-50.518508 -20.329943 31.334744
-50.904438 -18.437630 31.442384
-51.588365 -16.705802 31.571726
-52.242903 -14.958147 31.698928
-52.436622 -12.962320 31.792571
-52.630340 -10.966492 31.886214
-52.824058 -8.970665 31.979857
-53.017776 -6.974837 32.073500
-53.211495 -4.979010 32.167142
-52.409030 -3.284154 32.156523
-52.567957 -1.298838 32.246525
-51.730701 0.385507 32.232264
-50.893445 2.069851 32.218003
-50.246311 3.811637 32.223641
-48.976623 5.365333 32.164121
-48.381676 7.122885 32.175221
-47.166254 8.692977 32.121381
-45.896566 10.246673 32.061861
-45.103113 11.545637 32.037089
-43.369207 12.227030 31.901260
-42.099519 13.780726 31.841740
-40.656092 15.007953 31.753661
-38.843151 15.540833 31.604840
-37.573463 17.094529 31.545320
-35.945279 17.974582 31.426870
-34.219742 18.671700 31.292416
-32.688911 19.734688 31.189969
-30.748073 20.027236 31.020123
-29.265733 21.181342 30.925647
-27.276404 21.382772 30.747831
-25.794063 22.536878 30.653355
-23.804734 22.738308 30.475538
-22.202818 23.667721 30.361406
-20.333065 24.093845 30.203246
-18.343736 24.295275 30.025429
-16.354407 24.496706 29.847613
-14.365078 24.698136 29.669796
-12.689733 23.863764 29.482022
-10.700404 24.065194 29.304205
-8.711075 24.266625 29.126389
-6.721746 24.468055 28.948572
-5.025209 23.703591 28.761470
-3.057072 23.835113 28.582982
-1.271854 23.363201 28.398692
0.607603 23.202171 28.217391
2.282948 22.367799 28.029617
4.247169 22.486403 27.851004
5.947622 21.734857 27.664026
7.622967 20.900484 27.476252
9.544173 20.877182 27.296275
11.087820 19.608352 27.104324
12.649002 18.397367 26.912930
14.397135 17.803115 26.727464
15.940783 16.534285 26.535513
17.484430 15.265454 26.343563
19.036399 14.024074 26.151876
20.985591 14.176390 25.975941
21.214455 12.199490 25.879738
22.324057 10.696907 25.719397
23.629271 9.299670 25.544810
24.613551 7.729595 25.393595
25.371608 6.037689 25.258854
26.242776 4.406699 25.115876
27.096764 2.766456 24.974150
27.290482 0.770629 24.880507
27.484201 -1.225199 24.786864
27.677919 -3.221026 24.693221
27.871637 -5.216854 24.599578
28.065355 -7.212681 24.505935
28.208116 -9.193113 24.417626
27.421818 -10.892853 24.426553
27.126757 -12.741008 24.384067
26.586077 -14.514956 24.367287
25.941024 -16.257370 24.361432
25.103768 -17.941714 24.375692
24.235029 -19.616547 24.393248
22.965341 -21.170243 24.452768
21.695652 -22.723939 24.512288
20.279516 -24.002447 24.595881
18.797780 -25.157688 24.690258
17.528091 -26.711384 24.749777
15.899907 -27.591438 24.868228
14.350155 -28.618869 24.973785
12.867814 -29.772975 25.068261
11.373851 -30.905240 25.164648
9.745667 -31.785293 25.283099
8.420794 -33.235291 25.351690
6.489300 -33.545399 25.519999
4.949124 -34.590827 25.623982
2.959795 -34.792258 25.801799
1.246253 -35.511915 25.934281
-0.511874 -36.147794 26.074092
-2.501203 -36.349224 26.251908
-4.490532 -36.550655 26.429725
-6.479861 -36.752085 26.607541
-8.469190 -36.953516 26.785358
-9.956830 -38.097662 26.880705
-11.940859 -38.309052 27.057650
