ply
format ascii 1.0
element vertex 1463
property float x
property float y
property float z
end_header
0.280571 -35.706654 20.969421
-1.297843 -34.700024 21.140543
-2.876257 -33.693395 21.311665
-4.521025 -32.845179 21.486674
-6.220097 -32.126607 21.664865
-7.919169 -31.408035 21.843056
-9.607982 -30.664971 22.020645
-11.021694 -29.265132 22.182118
-12.425147 -27.840801 22.342989
-13.828600 -26.416470 22.503860
-14.584129 -24.725927 22.605678
-16.080927 -23.638127 22.770146
-17.557069 -22.529782 22.932930
-17.621715 -20.555377 22.971779
-19.025168 -19.131046 23.132650
-19.723182 -17.416872 23.229226
-20.503193 -15.736388 23.333275
-21.489134 -14.140515 23.456094
-21.817225 -12.274351 23.518954
-22.463375 -10.538868 23.610803
-23.213254 -8.846004 23.712106
-23.437617 -6.937221 23.765512
-23.903844 -5.127814 23.840962
-24.411858 -3.335575 23.920221
-25.299873 -1.699466 24.034114
-25.386100 0.266072 24.074930
-25.374400 2.271845 24.106821
-25.362700 4.277618 24.138712
-25.351001 6.283391 24.170603
-25.339301 8.289164 24.202494
-25.327601 10.294937 24.234385
-25.315901 12.300710 24.266276
-25.304202 14.306483 24.298167
-25.292502 16.312256 24.330058
-25.280802 18.318029 24.361949
-23.628338 19.045177 24.212133
-23.275200 20.907054 24.208224
-23.263500 22.912827 24.240115
-22.258991 24.500191 24.167909
-22.247292 26.505964 24.199800
-22.144521 28.473356 24.222142
-21.231083 30.099101 24.159484
-20.226573 31.686465 24.087278
-19.990591 33.597717 24.095653
-18.570592 35.009977 23.979882
-17.213046 36.448557 23.870660
-16.432616 38.130357 23.821949
-15.714640 39.838477 23.779786
-14.294641 41.250738 23.664015
-12.874642 42.662998 23.548244
-11.454643 44.075258 23.432474
-10.736666 45.783378 23.390311
-9.316667 47.195638 23.274540
-7.896668 48.607899 23.158769
-6.188904 49.310937 23.003142
-4.481928 50.015916 22.847624
-3.008747 51.297104 22.724488
-1.354560 52.132185 22.576281
0.577814 52.281652 22.389545
2.347551 52.831951 22.225335
4.164374 53.266200 22.054602
6.049661 53.531717 21.874388
7.750935 54.250749 21.719660
9.747417 54.242213 21.524044
11.743899 54.233678 21.328429
13.740381 54.225143 21.132814
15.440349 53.508709 20.954570
16.897210 52.211884 20.790570
18.838493 52.071566 20.598189
20.472106 51.196719 20.423833
22.236636 50.634422 20.241807
23.640089 49.210091 20.080936
25.339161 48.491519 19.902745
26.742614 47.067188 19.741873
28.146067 45.642857 19.581002
29.549520 44.218526 19.420131
30.595113 42.647161 19.291876
31.581055 41.051288 19.169058
32.349002 39.365847 19.066108
33.752455 37.941516 18.905236
34.538878 36.263667 18.800603
35.524820 34.667793 18.677784
35.513120 32.662020 18.645894
36.499061 31.066147 18.523075
37.242527 29.370648 18.422357
37.473303 27.464500 18.368366
38.459244 25.868627 18.245548
39.336570 24.228126 18.132629
39.433486 22.266980 18.090839
39.421786 20.261207 18.058948
40.407727 18.665333 17.936129
40.396027 16.659560 17.904239
40.384328 14.653788 17.872348
40.372628 12.648015 17.840457
40.360928 10.642242 17.808566
40.349228 8.636469 17.776675
40.337529 6.630696 17.744784
40.325829 4.624923 17.712893
40.314129 2.619150 17.681002
39.948227 0.762651 17.686250
38.528228 -0.649609 17.802020
38.293411 -2.561351 17.793524
38.281711 -4.567124 17.761633
37.778343 -6.365689 17.781294
37.265502 -8.160261 17.801948
36.342389 -9.781929 17.865620
36.249293 -11.753398 17.842263
35.608458 -13.494029 17.876338
34.890481 -15.202149 17.918501
33.470482 -16.614409 18.034271
32.752506 -18.322529 18.076434
31.332507 -19.734790 18.192205
30.614530 -21.442910 18.234368
29.768024 -22.834258 18.294332
28.216636 -23.866608 18.429225
27.471207 -25.563158 18.474266
25.763837 -26.267167 18.629839
25.045860 -27.975287 18.672002
23.625861 -29.387547 18.787772
21.918491 -30.091556 18.943345
20.498492 -31.503816 19.059115
18.791123 -32.207825 19.214688
17.083753 -32.911834 19.370260
15.439621 -33.771699 19.517074
13.443139 -33.763163 19.712689
11.853060 -34.756247 19.852017
9.856578 -34.747712 20.047632
8.259533 -35.723626 20.187924
6.270018 -35.732260 20.382575
4.273536 -35.723725 20.578190
2.277053 -35.715189 20.773806
78.512607 -103.033175 12.200838
76.924801 -102.026506 12.372880
74.918928 -102.017930 12.569415
74.101025 -100.567516 12.673385
72.395351 -99.842244 12.852333
70.985296 -98.411213 13.013961
69.590701 -96.973829 13.174180
69.576063 -94.969465 13.208626
68.616570 -93.353312 13.329189
67.630684 -91.748002 13.452157
67.642438 -89.732794 13.484198
66.757597 -88.085969 13.597957
66.668307 -86.112277 13.639208
66.680062 -84.097068 13.671249
67.684626 -82.500269 13.599192
67.696381 -80.485060 13.631233
68.700945 -78.888261 13.559177
69.499892 -77.204806 13.508680
70.224548 -75.490042 13.465973
70.721828 -73.679453 13.447106
71.673861 -72.060515 13.380558
72.730957 -70.485854 13.302994
73.735521 -68.889055 13.230937
74.549854 -67.212084 13.178827
76.263903 -66.501432 13.022710
77.690582 -65.082529 12.906395
79.676797 -65.042653 12.712582
81.118681 -63.661224 12.594161
82.832731 -62.950572 12.438044
84.259410 -61.531668 12.321728
85.973460 -60.821016 12.165611
87.674149 -60.077436 12.011345
89.680023 -60.086011 11.814809
91.685897 -60.094587 11.618274
93.691770 -60.103162 11.421738
95.397444 -60.828434 11.242790
97.285450 -61.118408 11.053160
98.873256 -62.125077 10.881118
100.514466 -63.004251 10.705948
101.924521 -64.435282 10.544320
102.613676 -66.162509 10.448396
103.333754 -67.877030 10.349654
104.038370 -69.597904 10.252321
104.573694 -71.388335 10.170418
104.742164 -73.329495 10.121951
105.547826 -75.008853 10.015409
105.536071 -77.024061 9.983368
105.524316 -79.039269 9.951327
104.519752 -80.636069 10.023383
103.515188 -82.232868 10.095440
102.727120 -83.920908 10.144796
102.498869 -85.844876 10.135455
101.494304 -87.441676 10.207511
101.255173 -89.361059 10.199311
100.477985 -91.053684 10.247526
99.103837 -92.494726 10.358334
98.379181 -94.209490 10.401041
96.743002 -95.112061 10.546373
95.238452 -96.339046 10.673473
93.544061 -97.098148 10.826868
92.471814 -98.626258 10.906682
91.085696 -99.475113 11.028415
89.328640 -100.079771 11.190489
87.657597 -100.896418 11.340649
85.943547 -101.607070 11.496766
84.123825 -102.057283 11.667519
82.228077 -102.320123 11.848802
80.518481 -103.041751 12.004302
-79.156454 -100.925166 33.884864
-80.558880 -99.503611 34.002178
-82.307791 -98.909231 34.146262
-84.301458 -98.899165 34.309255
-86.244007 -98.767061 34.468300
-87.646432 -97.345506 34.585614
-89.446462 -96.873164 34.733647
-91.042424 -95.913642 34.865914
-93.015798 -95.855130 35.027340
-94.438415 -94.481778 35.146214
-95.840840 -93.060223 35.263529
-97.742803 -92.831228 35.419437
-99.318472 -91.823260 35.550136
-100.934827 -90.912427 35.683979
-102.337253 -89.490872 35.801293
-103.739679 -88.069317 35.918607
-105.437674 -87.353385 36.058757
-106.840100 -85.931831 36.176072
-108.354483 -84.777555 36.302036
-109.940521 -83.794344 36.433536
-109.954962 -81.804180 36.438456
-111.332852 -80.372573 36.553784
-112.735278 -78.951019 36.671098
-113.922186 -78.025712 36.769862
-115.129439 -76.524201 36.871372
-116.531864 -75.102646 36.988687
-116.887581 -73.252291 37.021242
-117.217935 -71.391545 37.051744
-118.620361 -69.969990 37.169058
-119.852975 -68.478870 37.272622
-120.718952 -66.837550 37.346497
-120.831101 -64.887414 37.359329
-121.405022 -63.126449 37.409554
-122.101188 -61.415564 37.469678
-122.797692 -59.704817 37.529829
-122.787354 -57.704502 37.532743
-122.777164 -55.704246 37.535669
-123.765481 -54.113046 37.619450
-123.755143 -52.112730 37.622364
-123.744805 -50.112414 37.625278
-122.739945 -48.531339 37.546105
-122.729607 -46.531023 37.549019
-122.597013 -44.582244 37.541842
-121.714410 -42.949631 37.472760
-121.169387 -41.174712 37.431542
-119.752341 -39.767393 37.318349
-119.038528 -38.063627 37.263199
-117.694972 -36.625328 37.156071
-116.907669 -34.952542 37.094855
-115.202362 -34.253793 36.956766
-113.497055 -33.555045 36.818677
-112.080009 -32.147726 36.705483
-110.652829 -30.765319 36.591414
-108.957656 -30.041659 36.454200
-107.073157 -29.783382 36.300635
-105.079489 -29.793448 36.137641
-103.493485 -28.801444 36.009855
-101.559906 -28.663807 35.852051
-99.913813 -27.819507 35.719076
-97.920145 -27.829573 35.556082
-95.926478 -27.839640 35.393088
-93.932810 -27.849706 35.230095
-91.939143 -27.859772 35.067101
-90.175020 -27.305599 34.923932
-89.730149 -25.488460 34.890980
-89.990155 -23.598895 34.915785
-91.392580 -22.177340 35.033100
-92.695543 -20.715039 35.142360
-92.784911 -18.755570 35.153348
-93.673670 -17.123583 35.229067
-94.883502 -15.623130 35.330786
-95.650599 -13.941302 35.396653
-96.639064 -12.350162 35.480447
-96.628726 -10.349846 35.483361
-96.961904 -8.490258 35.514091
-98.364329 -7.068703 35.631405
-98.595317 -5.167250 35.653861
-98.584979 -3.166934 35.656775
-99.573444 -1.575794 35.740568
-100.442731 0.064169 35.814711
-101.138896 1.775054 35.874834
-101.540035 3.606802 35.911068
-101.529697 5.607118 35.913982
-101.519359 7.607434 35.916896
-101.804778 9.486588 35.943759
-102.497485 11.198890 36.003603
-101.780229 12.901204 35.948169
-101.482288 14.780281 35.927344
-102.470753 16.371421 36.011137
-102.460415 18.371737 36.014051
-102.324767 20.319228 36.006622
-101.445217 21.953128 35.937793
-101.434879 23.953444 35.940706
-101.424541 25.953760 35.943620
-101.414203 27.954075 35.946534
-100.409343 29.535151 35.867362
-99.448354 31.134720 35.791810
-99.394146 33.116543 35.791103
-99.383808 35.116858 35.794017
-98.442803 36.173813 35.719079
-97.377117 37.693232 35.634819
-97.366778 39.693548 35.637733
-96.361919 41.274623 35.558560
-96.273099 43.241855 35.554996
-94.856053 44.649174 35.441803
-94.142240 46.352940 35.386653
-93.337003 48.018166 35.323957
-92.332143 49.599242 35.244785
-91.297568 51.167791 35.163159
-89.880522 52.575110 35.049966
-89.166709 54.278876 34.994816
-87.749663 55.686195 34.881622
-87.035850 57.389961 34.826472
-86.302987 59.085697 34.769750
-84.336178 59.102856 34.609003
-83.304802 60.657053 34.527613
-82.197610 62.194990 34.439994
-81.295083 63.819204 34.369268
-80.066751 65.306075 34.271651
-78.649705 66.713394 34.158457
-76.944398 67.412142 34.020368
-75.239091 68.110891 33.882278
-73.822045 69.518210 33.769085
-72.404999 70.925528 33.655891
-70.987953 72.332847 33.542698
-69.570907 73.740166 33.429504
-67.865600 74.438914 33.291415
-66.448554 75.846233 33.178221
-64.930426 77.005084 33.056297
-63.326201 77.952300 32.926938
-61.909156 79.359619 32.813744
-60.203849 80.058368 32.675655
-58.586408 80.973099 32.545154
-56.592740 80.963032 32.382161
-55.087928 82.154612 32.261387
-53.420731 82.947040 32.126589
-51.834726 83.939044 31.998803
-49.972007 84.250857 31.847119
-48.266700 84.949606 31.709030
-46.669050 85.912985 31.580238
-45.144347 87.055673 31.457747
-43.497040 87.896992 31.324667
-41.503373 87.886926 31.161673
-39.740165 88.443347 31.018583
-38.034858 89.142096 30.880494
-36.337696 89.860867 30.743108
-34.344029 89.850801 30.580114
-32.630675 90.529770 30.441330
-30.764357 90.832738 30.289335
-29.178352 91.824742 30.161549
-27.184685 91.814676 29.998555
-25.232925 91.907622 29.839181
-23.605013 92.796613 29.707776
-21.822311 93.305119 29.563002
-20.025341 93.778551 29.416996
-18.031673 93.768484 29.254003
-16.038006 93.758418 29.091009
-14.136300 93.974401 28.935957
-12.458334 94.740355 28.800229
-10.464666 94.730289 28.637236
-8.470999 94.720223 28.474242
-6.477331 94.710157 28.311248
-4.744981 95.342431 28.170823
-2.897659 95.692094 28.020469
-1.321991 94.684127 27.889770
0.648865 94.730134 27.728746
2.257681 95.666064 27.598990
4.251349 95.655998 27.435997
5.827017 94.648030 27.305298
7.820684 94.637964 27.142304
9.814352 94.627898 26.979310
11.808019 94.617831 26.816316
13.801687 94.607765 26.653323
15.795354 94.597699 26.490329
17.789022 94.587633 26.327335
19.782689 94.577566 26.164342
21.405564 93.682297 26.029995
23.352025 93.559533 25.870649
25.345692 93.549466 25.707655
27.339360 93.539400 25.544662
29.084257 92.935437 25.400888
30.908695 92.521366 25.250969
32.902363 92.511300 25.087975
34.478031 91.503333 24.957276
36.467379 91.482954 24.794616
38.047367 90.485299 24.663583
40.041034 90.475233 24.500590
42.034702 90.465166 24.337596
43.610370 89.457199 24.206897
45.252927 88.608917 24.071030
47.179706 88.439165 23.913204
48.944488 87.882675 23.767894
50.749042 87.421131 23.619511
52.381188 87.052026 23.485396
53.332215 85.445548 23.404634
55.310215 85.398078 23.242851
57.303882 85.388012 23.079857
58.879551 84.380044 22.949158
60.338085 83.838518 22.828911
61.447056 82.367057 22.735492
63.440724 82.356991 22.572498
65.103064 81.555939 22.435103
67.010059 81.338957 22.278805
67.792795 79.834744 22.211993
69.490791 79.118812 22.071843
71.153233 78.318003 21.934440
72.728902 77.310035 21.803741
74.584778 76.971016 21.651393
75.987203 75.549461 21.534078
77.455907 74.286133 21.411643
79.087625 73.411974 21.276614
80.785620 72.696042 21.136464
82.483616 71.980110 20.996314
83.191806 70.274151 20.935216
84.750417 69.249244 20.805880
86.326086 68.241276 20.675181
87.978198 67.415806 20.538575
89.676194 66.699874 20.398425
90.372359 64.988989 20.338301
92.044928 64.212354 20.200116
93.122604 63.292585 20.110291
94.612434 62.199367 19.986449
96.162512 61.130307 19.857727
97.763770 60.183433 19.725051
98.556673 58.703490 19.657453
99.959098 57.281935 19.540139
101.361524 55.860381 19.422825
102.057689 54.149495 19.362701
103.460115 52.727941 19.245386
104.862541 51.306386 19.128072
105.558706 49.595500 19.067948
106.961132 48.173946 18.950634
107.986644 46.597982 18.863841
109.059723 45.041506 18.773196
110.462148 43.619951 18.655881
111.864574 42.198396 18.538567
112.939305 40.642596 18.447788
113.927770 39.051456 18.363995
113.953070 37.065740 18.358195
115.355496 35.644186 18.240881
116.051662 33.933300 18.180757
117.454087 32.511745 18.063443
117.871290 30.686579 18.025908
118.140158 28.800644 18.000385
119.542583 27.379089 17.883071
119.837882 25.503983 17.855408
120.826346 23.912842 17.771615
120.816008 21.912527 17.768701
120.914725 19.956887 17.756956
121.794135 18.321071 17.681994
122.782600 16.729930 17.598201
122.772262 14.729615 17.595287
122.761924 12.729299 17.592373
123.689292 11.113129 17.513527
123.740050 9.137843 17.505666
123.729712 7.137527 17.502752
123.719374 5.137212 17.499838
123.709036 3.136896 17.496925
124.345078 1.401380 17.441669
124.687163 -0.454560 17.410218
124.324019 -2.306151 17.436424
123.671965 -4.035952 17.486476
123.661627 -6.036267 17.483562
123.651289 -8.036583 17.480649
123.578465 -10.010558 17.482892
122.636091 -11.617974 17.556907
122.150839 -13.418090 17.593192
121.620894 -15.199366 17.633166
121.610556 -17.199681 17.630252
120.712632 -18.825836 17.700598
119.600837 -20.361833 17.788597
119.590499 -22.362149 17.785683
118.585640 -23.943225 17.864855
118.560612 -25.937348 17.863154
117.143567 -27.344667 17.976347
116.429753 -29.048433 18.031497
115.012708 -30.455752 18.144691
114.555864 -32.267843 18.178631
113.296820 -33.154714 18.279887
112.549173 -34.844217 18.337829
111.165961 -36.265799 18.448230
110.452148 -37.969565 18.503380
109.534594 -39.587444 18.575346
108.235845 -40.870622 18.679103
106.615982 -41.779398 18.809813
105.528522 -43.325654 18.895803
104.485123 -44.890483 18.978156
103.518803 -46.487805 19.054148
102.354264 -48.001568 19.146500
100.702805 -48.832680 19.279938
99.231911 -50.107635 19.397783
97.814865 -51.514954 19.510976
96.109558 -52.213703 19.649066
94.692512 -53.621021 19.762259
93.275467 -55.028340 19.875453
91.594440 -55.786772 20.011445
89.864853 -56.425837 20.151631
88.447807 -57.833156 20.264825
87.030761 -59.240474 20.378019
85.613715 -60.647793 20.491212
84.196669 -62.055112 20.604406
82.486075 -62.740865 20.742952
80.497794 -62.744038 20.905480
79.080748 -64.151357 21.018674
77.375441 -64.850105 21.156763
75.734394 -65.706810 21.289303
73.740726 -65.696743 21.452296
72.259520 -66.946350 21.571031
70.568717 -67.680751 21.707868
68.982712 -68.672755 21.835654
67.396708 -69.664758 21.963439
65.403040 -69.654692 22.126433
63.444724 -69.731521 22.286374
61.823368 -70.636630 22.417213
60.237364 -71.628633 22.544998
58.243696 -71.618567 22.707992
56.623496 -72.526515 22.838731
54.918189 -73.225263 22.976820
53.078019 -73.592508 23.126557
51.492015 -74.584512 23.254343
49.498347 -74.574446 23.417337
47.520439 -74.603115 23.578969
45.918675 -75.556383 23.708116
43.925008 -75.546317 23.871110
41.931340 -75.536251 24.034104
40.122688 -75.980968 24.181118
38.351668 -76.518188 24.324883
36.423813 -76.669894 24.482193
34.771996 -77.500125 24.615662
32.778329 -77.490059 24.778656
30.784661 -77.479993 24.941650
28.790994 -77.469927 25.104644
26.797327 -77.459860 25.267637
24.803659 -77.449794 25.430631
22.809992 -77.439728 25.593625
21.051790 -78.008457 25.736282
19.230320 -78.421665 25.884404
17.355863 -78.127003 26.038188
15.660984 -77.403631 26.178097
13.667316 -77.393565 26.341091
11.673649 -77.383499 26.504084
9.679981 -77.373433 26.667078
7.686314 -77.363366 26.830072
5.692647 -77.353300 26.993065
3.698979 -77.343234 27.156059
1.998478 -76.633283 27.296403
0.129643 -76.325200 27.449752
-1.864024 -76.315134 27.612745
-3.857691 -76.305067 27.775739
-5.680214 -75.886423 27.925510
-7.427027 -75.287034 28.069432
-9.420695 -75.276967 28.232426
-11.365341 -75.149872 28.391632
-12.990030 -74.258934 28.526118
-14.565699 -73.250966 28.656817
-16.559366 -73.240900 28.819811
-18.553034 -73.230834 28.982805
-20.546701 -73.220767 29.145799
-21.438195 -71.976194 29.221013
-23.114207 -71.207780 29.359465
-25.107874 -71.197714 29.522459
-26.827752 -70.534021 29.664299
-28.677210 -70.179680 29.816152
-30.252878 -69.171713 29.946851
-31.921738 -68.386225 30.084750
-33.822214 -68.153679 30.240543
-35.613300 -67.659983 30.387886
-37.311295 -66.944051 30.528036
-38.967218 -66.127678 30.664935
-40.542887 -65.119711 30.795634
-42.405282 -64.796255 30.948486
-44.112222 -64.101677 31.089327
-45.808806 -64.821868 31.226663
-46.088909 -66.708464 31.246015
-46.099247 -68.708780 31.243101
-46.109585 -70.709096 31.240187
-45.121120 -72.300236 31.156394
-44.987451 -74.241557 31.141819
-44.142994 -75.891692 31.069687
-44.153332 -77.892008 31.066773
-45.158191 -79.473084 31.145946
-45.168529 -81.473399 31.143032
-45.178867 -83.473715 31.140118
-45.454705 -85.362109 31.159118
-46.871751 -86.769428 31.272312
-47.585564 -88.473194 31.327462
-48.299377 -90.176960 31.382612
-49.716423 -91.584279 31.495805
-50.430236 -93.288045 31.550955
-52.105082 -94.061670 31.686414
-53.552589 -95.394113 31.802238
-54.969635 -96.801431 31.915432
-56.674942 -97.500180 32.053521
-58.380249 -98.198928 32.191610
-60.035105 -99.021689 32.325343
-61.621110 -100.013693 32.453128
-63.614777 -100.003626 32.616122
-65.608445 -99.993560 32.779116
-67.195045 -100.984099 32.906953
-69.188117 -100.975498 33.069895
-71.181784 -100.965431 33.232889
-73.175452 -100.955365 33.395883
-75.169119 -100.945299 33.558876
-77.162787 -100.935232 33.721870
10.316587 -80.165146 59.707896
8.726254 -79.185996 59.913641
6.731188 -79.210679 60.110248
4.736122 -79.235362 60.306856
2.741056 -79.260045 60.503464
0.745990 -79.284728 60.700072
-0.844343 -78.305577 60.905816
-2.839409 -78.330260 61.102424
-4.834475 -78.354943 61.299032
-6.481675 -77.516835 61.503492
-8.419874 -77.400476 61.701384
-10.182823 -76.849453 61.903231
-12.005274 -76.446009 62.103736
-14.000340 -76.470692 62.300344
-15.591451 -75.493472 62.506070
-17.585120 -75.514689 62.702710
-19.176073 -74.537074 62.908440
-21.171138 -74.561757 63.105048
-22.761472 -73.582607 63.310792
-24.701228 -73.470108 63.508648
-26.346871 -72.628140 63.713144
-28.116187 -72.092909 63.914848
-29.823667 -71.404309 64.117948
-31.522604 -70.694522 64.321240
-33.238626 -70.027110 64.524147
-34.946106 -69.338510 64.727247
-36.653585 -68.649911 64.930347
-38.288670 -67.781755 65.135081
-39.879004 -66.802605 65.340825
-41.489835 -65.874295 65.546107
-43.197315 -65.185695 65.749207
-44.904794 -64.497095 65.952306
-46.612274 -63.808496 66.155406
-48.235403 -62.910687 66.360410
-49.741044 -61.721479 66.568066
-51.416070 -60.952386 66.771899
-53.156004 -60.344280 66.974266
-54.596737 -58.994086 67.183387
-56.284774 -58.257264 67.386926
-57.777404 -57.035786 67.594876
-59.413544 -56.170247 67.799586
-60.834834 -54.771830 68.009146
-62.256125 -53.373414 68.218706
-63.677416 -51.974997 68.428267
-65.098706 -50.576580 68.637827
-66.519997 -49.178163 68.847387
-67.941287 -47.779746 69.056947
-69.362578 -46.381329 69.266508
-70.783868 -44.982912 69.476068
-72.205159 -43.584496 69.685628
-73.626449 -42.186079 69.895188
-75.047740 -40.787662 70.104749
-76.469030 -39.389245 70.314309
-77.576371 -37.856009 70.499357
-78.610150 -36.291184 70.678661
-79.590290 -34.703324 70.853777
-80.751269 -33.193122 71.043012
-81.604208 -31.550639 71.208197
-82.611167 -29.974296 71.385407
-83.612217 -28.395416 71.562155
-84.625086 -26.821611 71.739827
-85.632045 -25.245268 71.917037
-86.473165 -23.597710 72.081298
-86.653947 -21.666583 72.194002
-87.660906 -20.090240 72.371212
-88.632651 -18.498776 72.545673
-88.682807 -16.511555 72.648177
-89.689766 -14.935212 72.825387
-90.090676 -13.098614 72.955278
-90.711668 -11.356526 73.102352
-90.828872 -9.398097 73.210092
-91.733570 -7.777841 73.379317
-91.748512 -5.775498 73.479073
-91.763454 -3.773155 73.578828
-92.770414 -2.196812 73.756038
-92.785356 -0.194469 73.855793
-92.800298 1.807874 73.955548
-92.815241 3.810217 74.055303
-92.830183 5.812560 74.155058
-92.845126 7.814903 74.254814
-92.860068 9.817246 74.354569
-92.613108 11.714277 74.423186
-91.891762 13.420555 74.435405
-91.906704 15.422898 74.535160
-91.921647 17.425241 74.634915
-90.938398 19.026206 74.615996
-90.953341 21.028549 74.715751
-89.970092 22.629515 74.696832
-89.985034 24.631858 74.796587
-89.175942 26.302852 74.798374
-88.481610 28.019993 74.813804
-87.787279 29.737133 74.829234
-87.050231 31.437097 74.839586
-86.398617 33.171414 74.860094
-85.704286 34.888555 74.875524
-84.304127 36.321879 74.807039
-83.609796 38.039020 74.822469
-82.915465 39.756160 74.837900
-82.148930 41.444267 74.844746
-80.820975 42.906625 74.784845
-80.126644 44.623765 74.800275
-78.726485 46.057089 74.731790
-78.032154 47.774230 74.747220
-76.631995 49.207553 74.678735
-75.231837 50.640877 74.610249
-74.267999 52.249648 74.593638
-73.075378 53.644611 74.543849
-71.440459 54.522060 74.424804
-70.040300 55.955384 74.356319
-68.640141 57.388708 74.287834
-67.239982 58.822032 74.219349
-65.839824 60.255355 74.150863
-64.439665 61.688679 74.082378
-63.039506 63.122003 74.013893
-61.639347 64.555327 73.945408
-60.239189 65.988651 73.876923
-58.580020 66.808683 73.752656
-57.142142 68.152693 73.676047
-55.445254 68.883411 73.543657
-54.045095 70.316735 73.475171
-52.278311 70.881951 73.327728
-50.651319 71.778172 73.210390
-49.127456 72.918585 73.115264
-47.552029 73.936902 73.009032
-45.857384 74.672933 72.877124
-44.160496 75.403651 72.744734
-42.463608 76.134370 72.612343
-40.830680 77.016536 72.493728
-39.255253 78.034853 72.387496
-37.669673 79.029131 72.279077
-35.972785 79.759849 72.146687
-34.275897 80.490567 72.014296
-32.533905 81.114487 71.872192
-30.882121 81.952004 71.749515
-29.185233 82.682723 71.617125
-27.387984 83.175804 71.463120
-25.791457 84.144160 71.352344
-23.817491 84.218804 71.160280
-22.242064 85.237121 71.054048
-20.246998 85.261804 70.857440
-18.671570 86.280121 70.751208
-16.713558 86.392541 70.562581
-15.101077 87.323121 70.448369
-13.106011 87.347804 70.251761
-11.326165 87.882091 70.101504
-9.535518 88.390804 69.948921
-7.635660 88.640923 69.772818
-5.965024 89.433804 69.646081
-3.969958 89.458486 69.449473
-1.974892 89.483169 69.252866
-0.399465 90.501486 69.146633
1.595601 90.526169 68.950026
3.590667 90.550852 68.753418
5.585733 90.575535 68.556810
7.580799 90.600218 68.360202
9.156226 91.618535 68.253970
11.151292 91.643218 68.057362
13.146358 91.667901 67.860755
15.141424 91.692584 67.664147
17.136490 91.717267 67.467539
19.131556 91.741950 67.270931
21.126622 91.766633 67.074323
23.121688 91.791316 66.877716
25.116754 91.815999 66.681108
27.111820 91.840682 66.484500
29.106885 91.865365 66.287892
31.051623 91.765221 66.090148
32.692285 90.910898 65.885540
34.687351 90.935580 65.688932
36.682417 90.960263 65.492325
38.677483 90.984946 65.295717
40.672549 91.009629 65.099109
42.262882 90.030479 64.893365
44.257948 90.055162 64.696757
46.253014 90.079845 64.500149
47.849885 89.116910 64.294552
49.838413 89.125378 64.097797
51.833479 89.150061 63.901189
53.423813 88.170911 63.695445
55.418879 88.195594 63.498837
57.009212 87.216443 63.293093
59.004278 87.241126 63.096485
60.660810 86.426165 62.892235
62.589677 86.286659 62.694133
64.180011 85.307509 62.488389
66.065547 85.591539 62.315370
66.788260 87.297267 62.327426
66.773318 89.299610 62.427181
65.766358 90.875952 62.604391
65.358441 92.709541 62.734829
64.744457 94.454638 62.881356
63.918784 96.108830 63.044412
63.722555 98.033324 63.158321
63.707613 100.035667 63.258076
63.692670 102.038010 63.357832
63.677728 104.040353 63.457587
63.662786 106.042696 63.557342
64.646034 107.643661 63.538423
64.631092 109.646004 63.638178
65.580594 111.260539 63.623271
66.274925 112.977680 63.638701
67.580838 114.448901 63.581421
68.369415 116.128145 63.585646
69.769573 117.561468 63.517161
71.169732 118.994792 63.448676
72.569891 120.428116 63.380191
74.169646 121.388829 63.268719
75.745073 122.407146 63.162487
77.363826 123.322877 63.046925
79.315567 123.450146 62.859648
80.890994 124.468463 62.753416
82.751219 124.812427 62.585848
84.461487 125.511463 62.450576
86.456553 125.536146 62.253968
88.138613 126.301977 62.124771
90.027047 126.579146 61.951128
92.022113 126.603829 61.754520
94.017179 126.628512 61.557913
96.012244 126.653195 61.361305
97.602578 125.674045 61.155560
99.597644 125.698728 60.958953
101.592710 125.723411 60.762345
103.225608 124.849830 60.557561
105.178109 124.768943 60.359993
106.926756 124.182448 60.157822
108.763508 123.814476 59.957641
110.353842 122.835326 59.751896
112.049195 122.116649 59.548523
113.939241 121.880859 59.349544
115.529575 120.901709 59.143800
117.171634 120.050851 58.939224
118.879113 119.362251 58.736124
120.586593 118.673651 58.533024
122.294073 117.985052 58.329924
123.715363 116.586635 58.120364
125.136654 115.188218 57.910804
126.844133 114.499618 57.707704
128.265424 113.101202 57.498144
129.686715 111.702785 57.288583
131.108005 110.304368 57.079023
132.306262 109.397093 56.915682
133.535313 107.916124 56.721132
134.956604 106.517707 56.511572
136.319156 105.094066 56.306598
137.097723 103.419645 56.147220
138.519014 102.021228 55.937660
139.340034 100.365038 55.774967
140.346993 98.788696 55.597757
141.353952 97.212353 55.420547
142.099791 95.523878 55.263725
142.819619 93.824233 55.108934
143.382813 92.057325 54.966372
144.259277 90.424944 54.799351
144.404715 88.478639 54.689407
145.411674 86.902297 54.512197
145.426616 84.899954 54.412442
145.441559 82.897611 54.312687
145.456501 80.895268 54.212932
145.471443 78.892924 54.113176
145.180108 77.013737 54.049834
144.503137 75.289616 54.032340
144.497273 73.295639 53.935059
143.534831 71.686308 53.951504
142.402784 70.145175 53.988114
141.568334 68.484377 53.989342
140.308294 66.994710 54.041169
138.908135 65.561387 54.109654
137.507976 64.128063 54.178139
136.107817 62.694739 54.246624
134.410929 61.964020 54.379015
132.734432 61.185019 54.507014
131.159005 60.166702 54.613246
129.320265 59.771865 54.776186
127.588512 59.123702 54.916086
125.926489 58.310428 55.040967
124.018018 58.080702 55.218925
122.022952 58.056019 55.415533
120.447525 57.037702 55.521765
118.452459 57.013020 55.718373
116.457393 56.988337 55.914981
114.854973 56.033934 56.027026
114.805709 54.057408 55.934904
116.166614 52.633060 55.730059
117.587904 51.234644 55.520499
118.818603 49.754381 55.325820
119.729024 48.136582 55.156147
120.832521 46.601696 54.971399
121.870143 45.038521 54.791795
122.846440 43.449011 54.616979
123.853399 41.872668 54.439769
124.731091 40.240814 54.272652
125.450920 38.541170 54.117861
126.872210 37.142753 53.908301
127.592039 35.443108 53.753509
127.896178 33.564955 53.631174
128.903137 31.988612 53.453964
129.751525 30.344174 53.289135
130.471354 28.644530 53.134344
130.931998 26.833584 52.999789
131.209550 24.944013 52.879530
131.953899 23.254898 52.722824
131.968842 21.252555 52.623069
132.975801 19.676213 52.445859
132.990743 17.673869 52.346103
133.005686 15.671526 52.246348
134.012645 14.095184 52.069138
134.027587 12.092841 51.969383
134.042530 10.090498 51.869628
134.057472 8.088155 51.769873
134.072415 6.085812 51.670118
134.087357 4.083469 51.570363
134.102299 2.081126 51.470607
133.979464 0.134184 51.387233
133.133993 -1.522183 51.389771
133.148936 -3.524526 51.290016
133.163878 -5.526869 51.190261
132.180629 -7.127834 51.209180
132.195572 -9.130177 51.109425
131.225133 -10.736294 51.126821
131.227266 -12.733486 51.028589
130.244017 -14.334451 51.047508
129.847967 -16.171532 50.996615
129.153636 -17.888673 50.981185
128.292462 -19.538725 50.985591
127.764974 -21.322954 50.950325
127.070643 -23.040095 50.934894
126.340907 -24.742999 50.923673
124.976153 -26.190559 50.987949
124.281822 -27.907700 50.972519
123.391161 -29.545895 50.980431
122.187332 -31.058164 51.025574
121.424664 -32.747826 51.018269
120.092842 -34.208629 51.078629
119.398511 -35.925769 51.063199
117.998352 -37.359093 51.131684
116.598193 -38.792417 51.200169
115.198034 -40.225741 51.268655
113.797876 -41.659065 51.337140
112.397717 -43.092388 51.405625
110.997558 -44.525712 51.474110
109.597399 -45.959036 51.542595
108.197241 -47.392360 51.611080
107.502909 -49.109500 51.595650
106.102751 -50.542824 51.664135
104.405863 -51.273543 51.796526
103.005704 -52.706867 51.865011
101.573986 -54.065464 51.940293
99.908657 -54.870909 52.065887
98.423132 -56.102098 52.152757
96.811610 -57.034951 52.266762
95.272277 -58.138732 52.365221
93.696849 -59.157049 52.471453
92.017675 -59.929712 52.600029
90.545995 -61.193683 52.683917
88.920629 -62.093754 52.800904
87.223741 -62.824473 52.933295
85.819712 -64.248634 53.002613
84.126694 -64.988515 53.134170
82.429806 -65.719233 53.266561
80.732918 -66.449952 53.398951
79.098364 -67.328268 53.517917
77.339142 -67.911389 53.663732
75.642254 -68.642107 53.796123
73.952444 -69.389585 53.926989
72.248478 -70.103544 54.060904
70.551590 -70.834262 54.193294
68.806523 -71.450902 54.336061
67.157814 -72.295699 54.458075
65.236030 -72.493902 54.638901
63.660602 -73.512219 54.745133
61.770420 -73.785249 54.919152
60.090109 -74.555219 55.047972
58.095043 -74.579902 55.244580
56.519616 -75.598219 55.350812
54.524550 -75.622902 55.547420
52.949122 -76.641219 55.653652
50.954056 -76.665902 55.850260
49.002016 -76.792463 56.037601
47.383563 -77.708902 56.153100
45.388497 -77.733585 56.349707
43.393431 -77.758268 56.546315
41.818004 -78.776585 56.652547
39.822938 -78.801268 56.849155
37.827872 -78.825951 57.045763
35.832806 -78.850633 57.242371
33.837740 -78.875316 57.438978
32.246378 -79.855902 57.548642
30.267247 -79.918316 57.741818
28.272181 -79.942999 57.938426
26.277115 -79.967682 58.135034
24.282049 -79.992365 58.331642
22.286983 -80.017048 58.528249
20.291917 -80.041731 58.724857
18.296851 -80.066414 58.921465
16.301785 -80.091097 59.118073
14.306719 -80.115780 59.314681
12.311653 -80.140463 59.511288
10.506465 -85.723036 93.784923
8.896640 -84.776161 93.960444
6.902477 -84.840960 94.116679
4.908313 -84.905760 94.272914
2.914150 -84.970559 94.429149
0.919987 -85.035359 94.585385
-0.689838 -84.088484 94.760906
-2.684002 -84.153283 94.917141
-4.678165 -84.218082 95.073376
-6.350695 -83.436263 95.245751
-8.282153 -83.336007 95.405133
-10.066534 -82.848606 95.571895
-11.886142 -82.453931 95.736889
-13.880305 -82.518730 95.893124
-15.504409 -81.609441 96.067929
-17.484294 -81.636655 96.224881
-19.094119 -80.689780 96.400402
-21.088282 -80.754579 96.556637
-22.698108 -79.807704 96.732158
-24.658123 -79.782619 96.890107
-26.302096 -78.925628 97.063914
-28.102194 -78.479600 97.229888
-29.824230 -77.828091 97.399778
-31.515910 -77.096678 97.571192
-33.268301 -76.525073 97.739559
-34.990337 -75.873563 97.909450
-36.712373 -75.222054 98.079340
-38.339549 -74.320852 98.253991
-39.949374 -73.373977 98.429512
-41.606711 -72.552165 98.602649
-43.328747 -71.900656 98.772539
-45.050783 -71.249146 98.942430
-46.772818 -70.597637 99.112320
-48.382839 -69.651276 99.287832
-49.945122 -68.579257 99.465739
-51.602489 -67.757526 99.638874
-53.389193 -67.276238 99.805520
-54.839461 -65.909367 99.989047
-56.561496 -65.257858 100.158938
-58.041791 -63.970025 100.340959
-59.733799 -63.239478 100.512356
-61.184067 -61.872607 100.695884
-62.634335 -60.505736 100.879412
-64.084602 -59.138865 101.062939
-65.534870 -57.771994 101.246467
-66.985138 -56.405122 101.429995
-68.435406 -55.038251 101.613523
-69.885673 -53.671380 101.797050
-71.335941 -52.304509 101.980578
-72.786209 -50.937638 102.164106
-74.236476 -49.570767 102.347634
-75.686744 -48.203896 102.531161
-77.137012 -46.837025 102.714689
-78.406978 -45.388510 102.887838
-79.341286 -43.788003 103.041664
-80.489950 -42.284561 103.207829
-81.545561 -40.738982 103.368638
-82.572923 -39.180611 103.527820
-83.614409 -37.628636 103.687816
-84.503843 -36.007810 103.839059
-85.697381 -34.524687 104.007807
-86.708118 -32.958788 104.166033
-87.462125 -31.276638 104.309479
-87.837179 -29.422891 104.431111
-88.878665 -27.870916 104.591107
-89.724146 -26.230186 104.739819
-89.976976 -24.321094 104.854415
-91.018462 -22.769119 105.014410
-91.289906 -20.868456 105.130077
-92.116773 -19.219298 105.277718
-92.173598 -17.221451 105.381030
-93.215085 -15.669476 105.541026
-93.271910 -13.671629 105.644338
-93.328735 -11.673782 105.747651
-94.370221 -10.121807 105.907646
-94.427046 -8.123960 106.010959
-94.483871 -6.126113 106.114271
-94.540696 -4.128266 106.217583
-94.597521 -2.130419 106.320895
-94.654346 -0.132572 106.424208
-94.711171 1.865275 106.527520
-94.708962 3.840806 106.625009
-93.816638 5.479854 106.634696
-93.873463 7.477701 106.738008
-93.930288 9.475548 106.841320
-92.978929 11.092279 106.845184
-93.035754 13.090126 106.948496
-92.192678 14.747790 106.963041
-92.141221 16.704704 107.055672
-91.591548 18.473282 107.099159
-90.934536 20.201283 107.132058
-90.277525 21.929283 107.164956
-89.343971 23.552745 107.170576
-88.963501 25.385285 107.230753
-88.306490 27.113286 107.263652
-86.936585 28.571797 107.226229
-86.279573 30.299798 107.259128
-85.595362 32.017517 107.289344
-84.644004 33.634249 107.293207
-83.595644 35.214311 107.287503
-82.741287 36.867711 107.300935
-81.568728 38.400823 107.282979
-80.838571 40.101174 107.308663
-79.541811 41.587336 107.278455
-78.171906 43.045847 107.241033
-76.976312 44.570252 107.220805
-76.144989 46.232359 107.236510
-74.463162 46.994475 107.139720
-73.093257 48.452987 107.102298
-71.723352 49.911498 107.064876
-70.353447 51.370009 107.027454
-68.983542 52.828520 106.990032
-67.613637 54.287032 106.952609
-66.243732 55.745543 106.915187
-64.873827 57.204054 106.877765
-63.503922 58.662566 106.840343
-61.990507 59.800679 106.775607
-60.452189 60.883193 106.706131
-58.884431 61.899981 106.631053
-57.400456 63.103821 106.571920
-55.778356 63.999283 106.486498
-54.036801 64.628053 106.378341
-52.666896 66.086564 106.340919
-50.985068 66.848680 106.244129
-49.303240 67.610797 106.147340
-47.621413 68.372913 106.050551
-46.019003 69.312337 105.968877
-44.465965 70.361988 105.896599
-42.887852 71.355656 105.819550
-41.206024 72.117773 105.722760
-39.524197 72.879889 105.625971
-37.842369 73.642005 105.529182
-36.259650 74.625390 105.451255
-34.478714 75.166237 105.335603
-32.796886 75.928353 105.238813
-31.159411 76.789492 105.150466
-29.433231 77.452586 105.045235
-27.612210 77.903942 104.921953
-26.059172 78.953593 104.849676
-24.065009 79.018392 104.693441
-22.393997 79.804655 104.598710
-20.517808 80.132842 104.464928
-18.964770 81.182493 104.392651
-16.970607 81.247293 104.236416
-15.042841 81.460330 104.092818
-13.423406 82.361743 104.007903
-11.429242 82.426542 103.851668
-9.876205 83.476193 103.779391
-7.882041 83.540993 103.623156
-5.887878 83.605792 103.466921
-4.328029 84.640236 103.393347
-2.340677 84.720242 103.238408
-0.346514 84.785042 103.082173
1.647649 84.849841 102.925938
3.641813 84.914641 102.769703
5.328800 85.665237 102.671931
7.189014 86.029091 102.541190
9.183177 86.093890 102.384955
11.177340 86.158690 102.228720
13.171503 86.223489 102.072485
15.165667 86.288289 101.916249
17.159830 86.353088 101.760014
19.153993 86.417888 101.603779
21.148156 86.482687 101.447544
23.142320 86.547486 101.291309
25.136483 86.612286 101.135074
27.130646 86.677085 100.978838
28.740471 85.730210 100.803317
30.734635 85.795010 100.647082
32.728798 85.859809 100.490847
34.722961 85.924608 100.334612
36.717124 85.989408 100.178376
38.390913 85.210902 100.006065
40.321113 85.107332 99.846620
42.315276 85.172132 99.690385
44.100556 84.687098 99.523668
45.919264 84.290056 99.358628
47.913428 84.354855 99.202393
49.538431 83.447932 99.027634
51.517416 83.472780 98.870637
53.254270 82.860276 98.701490
55.121405 82.590704 98.538881
56.970109 82.272619 98.375346
58.725393 81.708628 98.207124
60.414181 80.969601 98.035565
62.329382 80.826553 97.875368
63.939207 79.879678 97.699847
65.852055 79.730435 97.539531
67.543196 78.997602 97.368090
69.153021 78.050727 97.192569
71.018162 77.775908 97.029860
72.740198 77.124399 96.859969
74.366835 76.221776 96.685292
76.184269 75.821380 96.520188
77.906305 75.169871 96.350298
79.580649 74.392825 96.178014
81.190474 73.445950 96.002493
82.800644 72.499981 95.826989
84.410125 71.552200 95.651450
86.019950 70.605325 95.475929
87.694983 69.830092 95.303680
89.239601 68.711575 95.124887
90.867286 67.811712 94.950262
92.589321 67.160203 94.780371
94.069076 65.870950 94.598323
95.761625 65.141822 94.426953
97.288727 63.977199 94.247281
98.933928 63.123442 94.073535
100.384196 61.756571 93.890007
102.106231 61.105062 93.720117
103.556499 59.738191 93.536589
104.310506 58.056040 93.393142
105.760774 56.689169 93.209615
107.211041 55.322298 93.026087
108.661309 53.955427 92.842559
110.111577 52.588556 92.659031
111.833612 51.937047 92.489141
112.587619 50.254896 92.345694
114.037887 48.888025 92.162167
115.488155 47.521154 91.978639
116.469260 45.941837 91.822119
117.692430 44.472132 91.651665
118.552232 42.837888 91.502128
119.896704 41.423111 91.324690
120.650711 39.740960 91.181244
121.676691 38.181964 91.022141
122.718177 36.629989 90.862145
123.608993 35.009788 90.710823
124.801149 33.526040 90.542154
125.813268 31.960767 90.383849
125.899461 29.976218 90.278846
126.940947 28.424243 90.118850
127.982433 26.872269 89.958854
128.829296 25.232165 89.810063
129.080744 23.322447 89.695547
129.641050 21.552585 89.563251
130.179055 19.772625 89.432239
130.452803 17.873005 89.316439
131.277367 16.222803 89.168931
131.334192 14.224956 89.065618
131.391017 12.227109 88.962306
132.432503 10.675135 88.802310
132.489328 8.677288 88.698998
132.546153 6.679440 88.595686
132.602978 4.681593 88.492374
132.659803 2.683746 88.389061
132.716628 0.685899 88.285749
132.773453 -1.311948 88.182437
132.475482 -3.175674 88.114122
131.878919 -4.926526 88.075261
131.935744 -6.924373 87.971949
131.930234 -8.898656 87.874785
131.041211 -10.538951 87.864773
131.098036 -12.536799 87.761460
130.146678 -14.153530 87.757597
130.015080 -16.080149 87.672871
129.252144 -17.768108 87.650421
128.701057 -19.536151 87.607074
128.044045 -21.264151 87.574175
127.406253 -22.999418 87.539381
126.730021 -24.720153 87.508378
126.073010 -26.448154 87.475479
125.415998 -28.176155 87.442581
124.046093 -29.634666 87.480003
123.389081 -31.362667 87.447105
122.706286 -33.080921 87.416749
121.362164 -34.549179 87.451628
120.705153 -36.277180 87.418730
119.335248 -37.735691 87.456152
118.678236 -39.463692 87.423253
117.308331 -40.922204 87.460676
115.938426 -42.380715 87.498098
114.568521 -43.839226 87.535520
113.198616 -45.297737 87.572942
111.828711 -46.756249 87.610364
110.458806 -48.214760 87.647786
109.088901 -49.673271 87.685209
107.718996 -51.131783 87.722631
107.061984 -52.859784 87.689732
105.692079 -54.318295 87.727154
104.010252 -55.080411 87.823944
102.640347 -56.538922 87.861366
101.180656 -57.796979 87.915877
99.588614 -58.759550 87.995577
98.074580 -59.896281 88.060431
96.536881 -60.980177 88.129789
94.968505 -61.995583 88.204986
93.415467 -63.045234 88.277263
91.803321 -63.962921 88.360790
90.309391 -65.144535 88.421817
88.751588 -66.183548 88.495002
87.069760 -66.945665 88.591791
85.650277 -68.293488 88.638649
84.018028 -69.166292 88.726003
82.336200 -69.928408 88.822792
80.654372 -70.690524 88.919581
78.997000 -71.507240 89.011716
77.290717 -72.214757 89.113160
75.608889 -72.976873 89.209949
73.896761 -73.671341 89.312506
72.245234 -74.501105 89.403528
70.563406 -75.263221 89.500318
68.796522 -75.835442 89.613295
67.199751 -76.787454 89.693896
65.249321 -76.949893 89.841808
63.696283 -77.999544 89.914085
61.842345 -78.377407 90.043632
60.149082 -79.113994 90.142598
58.166767 -79.205244 90.296578
56.601881 -80.228444 90.371110
54.607718 -80.293244 90.527345
53.054680 -81.342894 90.599622
51.060517 -81.407694 90.755858
49.133783 -81.623035 90.899259
47.513316 -82.522144 90.984370
45.519152 -82.586944 91.140605
43.524989 -82.651743 91.296840
41.971951 -83.701394 91.369118
39.977788 -83.766193 91.525353
37.983625 -83.830993 91.681588
35.989462 -83.895792 91.837823
33.995298 -83.960592 91.994058
32.437720 -85.000105 92.067200
30.448097 -85.075042 92.222571
28.453934 -85.139841 92.378806
26.459771 -85.204641 92.535041
24.465608 -85.269440 92.691276
22.471444 -85.334240 92.847512
20.477281 -85.399039 93.003747
18.483118 -85.463838 93.159982
16.488955 -85.528638 93.316217
14.494792 -85.593437 93.472452
12.500628 -85.658237 93.628688
10.310048 -34.568535 104.343800
8.695004 -33.639537 104.631983
6.701952 -33.724529 104.897685
4.875484 -33.362670 105.173294
3.093857 -32.880524 105.451571
1.100806 -32.965517 105.717272
-0.559080 -32.156804 106.002789
-2.281504 -31.515849 106.284586
-4.122334 -31.192514 106.559342
-5.737378 -30.263516 106.847525
-7.448776 -29.592984 107.129978
-9.171200 -28.952029 107.411776
-10.893624 -28.311074 107.693573
-12.575561 -27.561514 107.977778
-14.071181 -26.312164 108.273064
-15.526314 -24.954209 108.570759
-17.042686 -23.760528 108.864811
-18.703870 -22.955299 109.150250
-20.159003 -21.597344 109.447945
-21.614136 -20.239389 109.745639
-22.378421 -18.559703 109.972579
-23.833554 -17.201748 110.270273
-24.597839 -15.522063 110.497212
-25.362125 -13.842377 110.724152
-26.126411 -12.162691 110.951091
-27.157703 -10.607352 111.205377
-27.222520 -8.601921 111.360678
-28.264342 -7.051485 111.616042
-28.329159 -5.046054 111.771344
-28.393976 -3.040622 111.926645
-28.458793 -1.035191 112.081947
-28.329025 0.898406 112.205455
-27.584740 2.605142 112.228558
-27.649557 4.610573 112.383860
-26.710687 6.245475 112.375170
-26.423724 8.121040 112.472994
-25.060256 9.599193 112.394929
-24.406502 11.339350 112.432824
-23.752748 13.079508 112.470719
-22.389281 14.557661 112.392654
-21.025813 16.035814 112.314589
-19.662346 17.513967 112.236524
-17.986038 18.299860 112.065223
-16.622571 19.778013 111.987158
-15.259103 21.256166 111.909093
-13.692321 22.284419 111.770434
-12.141692 23.348416 111.636589
-10.543021 24.306105 111.488425
-8.866714 25.091997 111.317124
-7.190406 25.877890 111.145822
-5.496754 26.625401 110.969351
-3.837792 27.449675 110.803219
-2.161484 28.235568 110.631918
-0.402444 28.838388 110.435959
1.590607 28.923381 110.170257
3.180277 29.900986 110.024776
5.134287 30.072371 109.770710
7.127338 30.157364 109.505008
8.677967 31.221361 109.371163
10.671019 31.306354 109.105461
12.664070 31.391347 108.839759
14.657121 31.476340 108.574058
16.650173 31.561333 108.308356
18.643224 31.646326 108.042654
20.636275 31.731318 107.776952
22.472751 31.396303 107.501938
24.244371 30.887313 107.223066
26.237422 30.972306 106.957365
28.174606 30.907437 106.688340
29.845517 30.128301 106.403479
31.619454 29.625527 106.124746
33.453613 29.284296 105.849594
35.331594 29.060617 105.577048
37.061708 28.440290 105.295708
38.776442 27.778707 105.013454
40.498866 27.137752 104.731656
41.953999 25.779797 104.433962
43.676423 25.138842 104.152165
45.398847 24.497887 103.870367
46.853979 23.139932 103.572673
48.576404 22.498977 103.290876
49.340689 20.819291 103.063936
51.016973 20.054567 102.779395
52.518246 18.820381 102.484445
53.973378 17.462426 102.186750
55.284840 16.037563 101.903771
56.192797 14.424786 101.662117
56.957082 12.745100 101.435177
58.410306 11.386256 101.137678
58.485653 9.385729 100.981298
59.516945 7.830389 100.727013
59.581762 5.824958 100.571711
60.623585 4.274522 100.316347
60.688402 2.269091 100.161046
60.753219 0.263659 100.005744
60.818036 -1.741772 99.850443
60.688268 -3.675369 99.726934
59.943983 -5.382105 99.703831
60.008800 -7.387536 99.548530
59.069930 -9.022437 99.557220
58.131060 -10.657339 99.565910
57.419499 -12.376156 99.537460
56.765745 -14.116313 99.499565
55.402277 -15.594466 99.577630
54.748524 -17.334624 99.539736
53.385056 -18.812777 99.617800
51.811658 -19.826389 99.758432
50.536418 -21.147384 99.835937
49.691527 -22.816980 99.829272
48.015220 -23.602873 100.000573
46.631695 -25.036642 100.084616
44.975445 -25.866919 100.249940
43.299138 -26.652811 100.421241
41.935670 -28.130964 100.499306
40.259363 -28.916857 100.670608
38.436128 -29.377624 100.885699
36.885499 -30.441621 101.019544
34.892448 -30.526614 101.285246
33.241294 -31.368167 101.449051
31.348767 -31.675604 101.684793
29.798138 -32.739601 101.818638
27.805087 -32.824594 102.084340
25.812036 -32.909587 102.350042
24.234078 -33.913110 102.492032
22.268355 -34.058577 102.749589
20.275304 -34.143570 103.015290
18.282253 -34.228563 103.280992
16.289202 -34.313556 103.546694
14.296150 -34.398549 103.812396
12.303099 -34.483542 104.078098
