ply
format ascii 1.0
element vertex 1169
property float x
property float y
property float z
end_header
-10.045608 -36.213496 -20.310629
-11.631004 -35.233036 -20.107335
-13.617976 -35.257351 -19.876886
-15.604948 -35.281665 -19.646438
-17.591920 -35.305980 -19.415989
-19.578892 -35.330295 -19.185540
-21.398778 -34.936547 -18.966389
-23.151260 -34.374149 -18.751797
-25.138232 -34.398464 -18.521348
-27.075363 -34.298073 -18.294269
-28.710600 -33.442318 -18.087605
-30.481144 -32.925112 -17.871791
-32.282968 -32.486173 -17.653862
-33.886924 -31.552152 -17.449313
-35.855336 -31.530028 -17.220119
-37.576662 -30.889675 -17.007634
-39.279552 -30.203195 -16.796395
-41.013100 -29.593422 -16.583083
-42.685332 -28.830235 -16.373917
-44.585468 -28.637277 -16.149340
-46.170864 -27.656817 -15.946046
-47.794003 -26.770794 -15.740200
-49.496893 -26.084314 -15.528961
-51.199784 -25.397834 -15.317722
-52.618717 -24.000871 -15.125685
-54.097843 -22.754517 -14.929577
-55.740540 -21.917427 -14.722408
-57.268635 -20.793597 -14.522989
-58.862363 -19.833984 -14.319132
-60.565254 -19.147504 -14.107893
-62.024823 -17.852217 -13.913108
-63.687077 -17.064061 -13.704617
-64.406548 -15.365686 -13.588015
-65.825481 -13.968723 -13.395978
-67.382988 -12.918482 -13.194570
-68.247843 -11.583868 -13.068137
-69.666776 -10.186905 -12.876100
-71.085709 -8.789942 -12.684062
-72.504642 -7.392978 -12.492025
-73.920133 -5.994532 -12.300359
-74.643047 -4.297640 -12.183386
-74.948726 -2.420955 -12.111411
-75.957617 -0.847296 -11.963596
-76.801461 0.797484 -11.833581
-77.975399 2.300020 -11.667966
-77.995101 4.299939 -11.626833
-78.014804 6.299858 -11.585700
-78.034506 8.299777 -11.544567
-78.999893 9.892182 -11.401444
-79.063100 11.873354 -11.355619
-79.082802 13.873273 -11.314486
-79.102505 15.873192 -11.273353
-79.122207 17.873111 -11.232220
-79.141910 19.873029 -11.191087
-79.161612 21.872948 -11.149954
-78.517780 23.605449 -11.191130
-78.203669 25.470835 -11.191405
-77.146103 27.036592 -11.283902
-76.248379 28.666770 -11.356572
-76.268082 30.666689 -11.315439
-75.088588 32.183308 -11.423060
-74.312791 33.862624 -11.480605
-73.335146 35.460592 -11.563189
-73.031073 37.330023 -11.562219
-71.342118 38.058009 -11.744366
-70.396441 39.668860 -11.822984
-69.970441 41.489152 -11.837138
-68.281486 42.217139 -12.019285
-67.457736 43.877129 -12.082779
-65.906692 44.660696 -12.247819
-64.515623 46.092046 -12.381685
-62.956807 47.127316 -12.542740
-61.540921 48.293829 -12.684634
-60.451873 49.263590 -12.792366
-58.841557 50.177257 -12.961768
-57.371848 51.422925 -13.108380
-55.980779 52.854275 -13.242247
-54.291823 53.582261 -13.424394
-52.602868 54.310247 -13.606541
-51.013068 55.272357 -13.772617
-49.522843 56.469583 -13.922555
-47.881672 57.310397 -14.096957
-46.315974 58.329417 -14.259127
-44.329002 58.353732 -14.489576
-42.767021 59.381528 -14.651144
-41.197607 60.391772 -14.813916
-39.389111 60.837501 -15.015438
-37.644937 61.435107 -15.206535
-35.713314 61.590110 -15.428013
-34.092267 62.478442 -15.599154
-32.335403 63.046083 -15.792308
-30.539598 63.521776 -15.991773
-28.552626 63.546091 -16.222222
-26.970651 64.526679 -16.387030
-24.999956 64.589426 -16.614841
-23.012984 64.613740 -16.845290
-21.447286 65.632760 -17.007460
-19.460314 65.657075 -17.237909
-17.473342 65.681390 -17.468358
-15.486370 65.705704 -17.698807
-13.499398 65.730019 -17.929256
-11.512426 65.754334 -18.159705
-9.525454 65.778648 -18.390154
-7.959757 66.797669 -18.552324
-5.972785 66.821983 -18.782773
-4.020512 66.759478 -19.010875
-2.400417 65.865838 -19.216516
-0.413445 65.890152 -19.446965
1.573527 65.914467 -19.677414
3.560499 65.938782 -19.907863
5.145895 64.958322 -20.111156
7.048701 64.772046 -20.335914
8.718263 64.002176 -20.544899
10.705235 64.026491 -20.775348
12.290631 63.046031 -20.978642
14.277603 63.070346 -21.209091
16.131067 62.760612 -21.430512
17.849971 62.114200 -21.642834
19.536847 61.387651 -21.852990
21.422339 61.158055 -22.076577
23.226585 60.725174 -22.294669
24.645518 59.328211 -22.486707
26.580103 59.221449 -22.713613
28.165499 58.240989 -22.916907
29.754188 57.268771 -23.120424
31.336291 56.280069 -23.323495
32.921687 55.299609 -23.526789
34.862859 55.209330 -23.754140
36.281792 53.812367 -23.946178
37.984682 53.125887 -24.157417
39.664846 52.382544 -24.367119
41.106506 51.042444 -24.560693
42.525439 49.645481 -24.752731
44.019458 48.436389 -24.949845
45.647262 47.562037 -25.156007
46.754846 46.619028 -25.303043
48.069624 45.177182 -25.483848
49.488557 43.780219 -25.675885
50.907490 42.383256 -25.867922
52.326423 40.986293 -26.059960
53.045894 39.287918 -26.176561
54.464828 37.890955 -26.368599
55.883761 36.493992 -26.560636
56.804350 34.882283 -26.698928
57.813241 33.308624 -26.846743
58.042175 31.398867 -26.910441
58.841834 29.735047 -27.035691
60.314488 28.638580 -27.228135
60.853847 27.173365 -27.319276
60.873549 25.173446 -27.360409
60.893252 23.173527 -27.401542
61.902142 21.599869 -27.549357
61.921845 19.599950 -27.590490
61.941547 17.600031 -27.631623
61.961250 15.600112 -27.672756
61.980952 13.600193 -27.713889
62.000655 11.600274 -27.755022
61.271573 9.902131 -27.703271
61.042712 8.002388 -27.713571
61.062415 6.002469 -27.754704
60.084770 4.404501 -27.672121
60.104472 2.404583 -27.713254
59.252844 0.755827 -27.646302
58.567006 -0.959744 -27.599916
57.175936 -2.391093 -27.466049
56.193891 -3.987288 -27.382920
55.804260 -5.822237 -27.373277
54.413190 -7.253586 -27.239410
53.260956 -8.781191 -27.135170
52.336282 -10.400507 -27.059158
50.945213 -11.831856 -26.925291
49.554143 -13.263205 -26.791424
48.163073 -14.694555 -26.657558
46.772004 -16.125904 -26.523691
45.083048 -16.853890 -26.341544
43.691979 -18.285239 -26.207677
42.300909 -19.716589 -26.073810
40.675623 -20.594910 -25.901982
39.109925 -21.613930 -25.739812
37.531929 -22.603910 -25.575649
36.560373 -23.644850 -25.482955
34.859249 -24.344105 -25.298835
33.428977 -25.682890 -25.158615
31.779224 -26.503441 -24.982821
30.090269 -27.231427 -24.800674
28.310609 -27.745245 -24.603826
26.712358 -28.687400 -24.436380
25.179214 -29.783285 -24.279486
23.192242 -29.807600 -24.049037
21.626544 -30.826620 -23.886867
19.658651 -30.895982 -23.659510
18.073874 -31.869954 -23.494248
16.280740 -32.351955 -23.295216
14.521205 -32.913289 -23.101629
12.604943 -33.104564 -22.882641
10.968535 -33.956624 -22.709010
8.981563 -33.980939 -22.478561
7.240191 -34.585160 -22.287918
5.428893 -35.024273 -22.085942
3.441921 -35.048588 -21.855493
1.454949 -35.072903 -21.625044
-0.532023 -35.097217 -21.394595
-2.518995 -35.121532 -21.164146
-4.085085 -36.139626 -21.001913
-6.071664 -36.164867 -20.771527
-8.058636 -36.189181 -20.541078
5.668922 -57.257742 -45.972948
4.031083 -56.340619 -45.822240
2.031921 -56.443357 -45.641532
0.032759 -56.546096 -45.460824
-1.966403 -56.648834 -45.280115
-3.965565 -56.751573 -45.099407
-5.799824 -56.388860 -44.932391
-7.602565 -55.937188 -44.767991
-9.537574 -55.858849 -44.592610
-11.239566 -55.122803 -44.436575
-13.238728 -55.225541 -44.255867
-15.237890 -55.328279 -44.075159
-16.875728 -54.411156 -43.924451
-18.754203 -54.173246 -43.753764
-20.495331 -53.547665 -43.594480
-22.150567 -52.679648 -43.442328
-24.149729 -52.782386 -43.261620
-25.718715 -51.670921 -43.116630
-27.425406 -50.948139 -42.960205
-29.424568 -51.050878 -42.779497
-30.942100 -49.794178 -42.638779
-32.683228 -49.168597 -42.479495
-34.338084 -48.299507 -42.327375
-35.975923 -47.382384 -42.176668
-37.651118 -46.570702 -42.022859
-39.251600 -45.548137 -41.875253
-40.889438 -44.631014 -41.724546
-42.619008 -43.972807 -41.566222
-44.104642 -42.626075 -41.428152
-45.590276 -41.279343 -41.290082
-47.331404 -40.653761 -41.130799
-48.128563 -38.978376 -41.054183
-49.772501 -38.078469 -40.902969
-50.666851 -36.677409 -40.818283
-52.152485 -35.330677 -40.680214
-53.638118 -33.983944 -40.542144
-54.435278 -32.308559 -40.465528
-55.920912 -30.961826 -40.327458
-56.718071 -29.286441 -40.250842
-57.660027 -27.680176 -40.161302
-59.000865 -26.264323 -40.036156
-59.811009 -24.595136 -39.958381
-60.595184 -22.913552 -39.882924
-60.988342 -21.045311 -39.842370
-61.501028 -19.234127 -39.791146
-62.165675 -17.495485 -39.726358
-62.267517 -15.488180 -39.711806
-62.369358 -13.480874 -39.697255
-62.471200 -11.473568 -39.682703
-62.573042 -9.466263 -39.668151
-62.674883 -7.458957 -39.653600
-62.776725 -5.451651 -39.639048
-62.690371 -3.511527 -39.641712
-61.964783 -1.799596 -39.702851
-61.050999 -0.154846 -39.781206
-61.152840 1.852460 -39.766654
-60.196561 3.482040 -39.848896
-59.325273 5.141960 -39.923363
-58.949656 6.978824 -39.952488
-58.240959 8.547110 -40.012480
-56.657444 9.528034 -40.153227
-56.033992 11.276426 -40.205023
-54.692383 12.768452 -40.322514
-53.812889 14.425443 -40.397732
-52.400172 15.317662 -40.523253
-51.776719 17.066054 -40.575049
-50.435111 18.558080 -40.692539
-48.766352 19.358898 -40.841483
-47.424744 20.850924 -40.958973
-46.594517 22.162440 -41.030649
-44.805381 22.708925 -41.191165
-43.463773 24.200952 -41.308655
-41.985015 25.403206 -41.439332
-40.448514 26.483461 -41.575559
-38.784647 27.294614 -41.724032
-37.115888 28.095431 -41.872975
-35.774280 29.587458 -41.990466
-33.839850 29.826964 -42.164951
-32.303350 30.907219 -42.301178
-30.768002 31.989911 -42.437295
-29.230348 33.067730 -42.573634
-27.430484 33.591547 -42.735182
-25.694686 34.250723 -42.890570
-23.765815 34.501974 -43.064520
-22.159023 35.433717 -43.207506
-20.159861 35.536455 -43.388214
-18.623361 36.616710 -43.524442
-16.624199 36.719448 -43.705150
-15.087698 37.799704 -43.841378
-13.088536 37.902442 -44.022086
-11.103049 38.034072 -44.201480
-9.552873 39.085435 -44.339022
-7.553711 39.188174 -44.519731
-5.554549 39.290912 -44.700439
-3.555387 39.393651 -44.881148
-1.556225 39.496389 -45.061856
-0.019725 40.576644 -45.198084
1.979437 40.679383 -45.378792
3.648272 39.849750 -45.532073
5.616438 39.864998 -45.710208
7.615600 39.967736 -45.890916
9.614762 40.070474 -46.071624
11.613924 40.173213 -46.252333
13.613086 40.275951 -46.433041
15.372512 39.702019 -46.593844
17.250086 39.461566 -46.764457
18.887925 38.544443 -46.915164
20.887087 38.647181 -47.095872
22.848013 38.641997 -47.273406
24.524087 37.832796 -47.427288
26.161926 36.915673 -47.577995
28.161088 37.018411 -47.758704
30.068020 36.860823 -47.931754
31.798088 36.204026 -48.090120
33.435927 35.286903 -48.240827
35.435089 35.389641 -48.421535
37.032532 34.358499 -48.568889
38.710766 33.555394 -48.722950
40.348605 32.638271 -48.873657
42.000422 31.760604 -49.025525
43.741550 31.135023 -49.184809
45.262120 29.886901 -49.325779
47.223806 29.883860 -49.503376
48.709440 28.537128 -49.641446
50.195074 27.190396 -49.779515
51.936202 26.564814 -49.938799
53.421836 25.218082 -50.076868
55.089152 24.384160 -50.230023
56.648598 23.245769 -50.374222
58.134232 21.899036 -50.512291
58.931391 20.223651 -50.588907
60.607799 19.567174 -50.742414
61.469679 17.922684 -50.824807
62.729100 17.067153 -50.941093
64.007966 15.621717 -51.060707
64.880083 13.982113 -51.144013
65.955574 12.439594 -51.245474
66.399445 10.595560 -51.290555
68.076876 9.939573 -51.444153
68.178717 7.932267 -51.458704
69.046418 6.290555 -51.541617
69.356050 4.382441 -51.574716
70.431542 2.839922 -51.676176
70.749422 0.935745 -51.710011
71.608875 -0.709904 -51.792188
71.710716 -2.717209 -51.806739
71.812558 -4.724515 -51.821291
71.914399 -6.731821 -51.835843
72.016241 -8.739126 -51.850394
71.102457 -10.383876 -51.772040
71.204299 -12.391182 -51.786591
71.306140 -14.398488 -51.801143
70.392357 -16.043238 -51.722788
70.371714 -18.006819 -51.726136
69.030106 -19.498846 -51.608645
68.406653 -21.247238 -51.556849
67.752847 -22.984794 -51.502276
67.159748 -24.744021 -51.453257
65.818140 -26.236048 -51.335767
65.011496 -27.919044 -51.267213
63.853080 -29.476466 -51.166480
62.511471 -30.968493 -51.048989
61.888019 -32.716885 -50.997193
60.219260 -33.517702 -50.848250
58.877652 -35.009729 -50.730760
58.149749 -36.537437 -50.668922
56.585440 -37.558938 -50.530021
55.076748 -38.697947 -50.396466
53.651522 -39.879073 -50.270580
53.631698 -41.776089 -50.273825
51.632536 -41.878827 -50.093116
50.005107 -42.766967 -49.948147
48.559535 -44.039337 -49.820661
46.667589 -44.368603 -49.650260
45.325980 -45.860629 -49.532770
43.657221 -46.661447 -49.383827
41.950871 -47.382841 -49.231269
40.319703 -48.263082 -49.085940
38.650944 -49.063900 -48.936997
36.878707 -49.646089 -48.778106
35.313426 -50.665536 -48.639111
33.343045 -50.829083 -48.461170
31.806544 -51.909338 -48.324942
30.270044 -52.989593 -48.188714
28.270882 -53.092331 -48.008006
26.642480 -53.978416 -47.862943
24.735219 -54.275325 -47.691070
22.736057 -54.378063 -47.510362
20.736895 -54.480802 -47.329653
19.200394 -55.561057 -47.193425
17.201232 -55.663795 -47.012717
15.202070 -55.766534 -46.832009
13.325411 -56.128097 -46.663078
11.666408 -56.949527 -46.515073
9.667246 -57.052266 -46.334364
7.668084 -57.155004 -46.153656
-0.117990 -57.518671 -46.730107
-1.674931 -56.474839 -46.586387
-3.672139 -56.419112 -46.405434
-5.669348 -56.363384 -46.224482
-7.666556 -56.307657 -46.043529
-9.663765 -56.251929 -45.862577
-11.220705 -55.208097 -45.718857
-13.217914 -55.152369 -45.537904
-15.215122 -55.096642 -45.356952
-16.830332 -54.183585 -45.208304
-18.769271 -53.997082 -45.032279
-20.766480 -53.941354 -44.851327
-22.323420 -52.897522 -44.707606
-24.188858 -52.546058 -44.537797
-25.877569 -51.797963 -44.382933
-27.852893 -51.721455 -44.203907
-28.528654 -49.996733 -44.138150
-30.405486 -49.670843 -43.967377
-31.962427 -48.627011 -43.823657
-33.959635 -48.571283 -43.642705
-34.863740 -47.387375 -43.557712
-36.490344 -46.499891 -43.408101
-38.487553 -46.444164 -43.227148
-39.915659 -45.111187 -43.094323
-41.599632 -44.352458 -42.939860
-43.158374 -43.312667 -42.795987
-43.944139 -41.863167 -42.721003
-45.628112 -41.104437 -42.566540
-47.000768 -39.647013 -42.438404
-48.684741 -38.888283 -42.283941
-50.057398 -37.430859 -42.155805
-51.339985 -36.518176 -42.037270
-52.450344 -35.050283 -41.932851
-53.373754 -33.909701 -41.846226
-54.746411 -32.452277 -41.718090
-56.119067 -30.994852 -41.589954
-58.094934 -30.891226 -41.410807
-58.102807 -28.946477 -41.404928
-58.046828 -26.941095 -41.404669
-59.552531 -25.848609 -41.265458
-60.355683 -24.438130 -41.189003
-61.939959 -23.641161 -41.043464
-61.988066 -21.675702 -41.033888
-62.835095 -20.016671 -40.952801
-63.309133 -18.214578 -40.905100
-63.730231 -16.392181 -40.862137
-63.918076 -14.480318 -40.840054
-64.625368 -12.767690 -40.771474
-64.569388 -10.762308 -40.771215
-64.513409 -8.756926 -40.770956
-64.457430 -6.751544 -40.770697
-64.401451 -4.746162 -40.770437
-64.345472 -2.740780 -40.770178
-64.289493 -0.735397 -40.769919
-64.233514 1.269985 -40.769660
-63.493135 2.968055 -40.832174
-63.137577 4.838919 -40.859393
-62.097620 6.402470 -40.949386
-61.920778 8.353582 -40.960212
-61.001683 9.971404 -41.039119
-59.712909 11.423231 -41.151933
-58.261087 12.801845 -41.279703
-57.505041 14.492881 -41.343654
-56.053218 15.871495 -41.471424
-54.817917 17.347332 -41.579334
-53.845350 18.941144 -41.663145
-52.121672 19.604790 -41.817424
-51.365627 21.295826 -41.881376
-49.913804 22.674440 -42.009145
-48.190126 23.338086 -42.163425
-46.738303 24.716700 -42.291194
-45.162829 25.770116 -42.431021
-43.562802 26.758961 -42.573243
-42.110979 28.137575 -42.701012
-40.387301 28.801221 -42.855291
-38.711839 29.591673 -43.004869
-37.500264 30.973009 -43.110882
-36.069516 31.518723 -43.238956
-34.188367 31.768228 -43.408591
-32.736544 33.146842 -43.536360
-30.846812 33.373774 -43.706832
-29.234065 34.329163 -43.850294
-27.293655 34.422814 -44.025708
-25.624109 35.228824 -44.174708
-24.011361 36.184213 -44.318170
-22.122621 36.413754 -44.488545
-20.401405 37.083875 -44.642584
-18.675265 37.741047 -44.797104
-16.791449 37.983537 -44.966999
-14.794241 37.927809 -45.147951
-12.960521 38.302051 -45.312961
-11.184285 38.827470 -45.472366
-9.187076 38.771743 -45.653318
-7.517632 39.578023 -45.802309
-5.577120 39.671404 -45.977732
-3.579911 39.615677 -46.158685
-1.582703 39.559949 -46.339637
0.414506 39.504222 -46.520590
2.411714 39.448494 -46.701542
4.408923 39.392766 -46.882495
6.406131 39.337039 -47.063447
8.403340 39.281311 -47.244400
10.400548 39.225584 -47.425352
12.397757 39.169856 -47.606304
14.394966 39.114128 -47.787257
16.122758 38.453745 -47.945426
17.949114 38.014569 -48.111930
19.802021 37.634982 -48.280679
21.503263 36.915009 -48.436602
23.500472 36.859282 -48.617555
25.476574 36.756185 -48.796722
27.054621 35.759722 -48.942228
29.051829 35.703994 -49.123180
30.528493 34.479997 -49.260112
32.165710 33.616330 -49.410621
33.722650 32.572498 -49.554341
35.719859 32.516770 -49.735294
37.276799 31.472938 -49.879014
38.948359 30.686350 -50.032427
40.390680 29.385274 -50.166454
42.387888 29.329547 -50.347407
43.288155 28.137025 -50.432075
44.918597 27.258155 -50.582011
46.656102 26.619567 -50.741001
48.032478 25.170490 -50.869451
49.712731 24.403413 -51.023600
51.146358 23.082826 -51.156892
52.769361 22.187259 -51.306199
54.260239 20.995162 -51.444333
55.113867 19.697968 -51.525056
56.486524 18.240543 -51.653192
57.907620 16.891833 -51.785424
59.543153 16.024389 -51.935791
60.674046 14.474235 -52.042287
61.576343 12.836403 -52.128321
62.592622 11.821577 -52.223019
63.920849 10.347112 -52.347178
64.581383 8.616550 -52.411572
65.445968 6.964253 -52.494231
66.397083 5.345145 -52.584635
67.275105 3.698002 -52.668496
67.292219 1.720655 -52.675298
67.884049 -0.036259 -52.733543
68.544582 -1.766820 -52.797937
69.205115 -3.497382 -52.862331
70.089586 -5.142052 -52.946769
70.033607 -7.147434 -52.947028
69.977628 -9.152816 -52.947288
69.921649 -11.158198 -52.947547
69.865669 -13.163580 -52.947806
69.809690 -15.168962 -52.948065
68.769733 -16.732514 -52.858073
68.713754 -18.737896 -52.858332
68.434689 -20.643107 -52.838129
67.617817 -22.306830 -52.768599
66.922598 -24.025178 -52.710226
66.166553 -25.716213 -52.646274
65.410508 -27.407248 -52.582322
64.441966 -29.002867 -52.498880
63.402008 -30.566419 -52.408888
62.174739 -31.452966 -52.300140
60.722916 -32.831580 -52.172370
59.966871 -34.522615 -52.108418
59.210826 -36.213650 -52.044467
57.579442 -37.120026 -51.899187
56.035325 -38.255911 -51.762418
55.171019 -39.898334 -51.688536
53.555602 -40.610592 -51.544187
52.103779 -41.989206 -51.416418
51.083514 -43.561600 -51.328231
49.453761 -43.896021 -51.181581
47.900378 -45.007535 -51.043907
46.448555 -46.386149 -50.916138
44.724877 -47.049795 -50.761859
43.273054 -48.428409 -50.634089
41.390024 -48.672967 -50.464271
39.553843 -49.040735 -50.299021
38.747701 -50.600017 -50.230184
36.802265 -50.680449 -50.054280
35.137745 -51.499679 -49.905770
33.140536 -51.443951 -49.724817
31.527789 -52.399340 -49.581355
29.635698 -52.620067 -49.410653
27.917833 -53.299002 -49.256941
26.305085 -54.254391 -49.113479
24.307877 -54.198663 -48.932527
22.695129 -55.154052 -48.789065
20.697921 -55.098325 -48.608112
19.021775 -55.886979 -48.458468
17.087965 -55.997986 -48.283698
15.302564 -56.499304 -48.123400
13.478009 -56.897648 -47.959284
11.480800 -56.841920 -47.778331
9.483592 -56.786193 -47.597379
7.486383 -56.730465 -47.416426
5.489174 -56.674738 -47.235474
3.491966 -56.619010 -47.054521
1.877543 -57.569992 -46.910896
0.394312 -18.942348 52.248611
-1.270551 -18.077104 52.361726
-3.267435 -18.241870 52.454552
-5.264320 -18.406636 52.547378
-7.261204 -18.571402 52.640204
-8.926067 -17.706158 52.753319
-10.922951 -17.870924 52.846145
-12.635215 -17.152731 52.956363
-14.584698 -17.170446 53.052086
-16.249561 -16.305201 53.165200
-17.917445 -15.449331 53.278130
-19.678188 -14.881531 53.385386
-21.576170 -14.739478 53.484256
-23.199674 -13.745930 53.599898
-24.725642 -12.449803 53.721499
-26.486385 -11.882003 53.828755
-28.012353 -10.585875 53.950357
-29.538321 -9.289747 54.071959
-31.064289 -7.993619 54.193560
-32.590257 -6.697491 54.315162
-33.435801 -5.051562 54.415597
-34.906939 -3.727246 54.535493
-35.807313 -2.109504 54.637634
-36.652857 -0.463574 54.738068
-37.314949 1.276668 54.832796
-37.663521 3.178088 54.917771
-38.599534 4.777508 55.021020
-38.760694 6.775276 55.100165
-38.921854 8.773044 55.179309
-39.083014 10.770812 55.258454
-38.215348 12.438173 55.274976
-38.376508 14.435940 55.354121
-38.182839 16.319755 55.411668
-36.884785 17.848898 55.401994
-36.314222 19.611673 55.436600
-35.016169 21.140815 55.426926
-35.067005 23.103153 55.499355
-33.875042 24.666366 55.496138
-33.291455 26.403714 55.529195
-31.658023 27.278075 55.479615
-30.359970 28.807217 55.469941
-28.778945 29.783894 55.426596
-27.274775 30.910621 55.392397
-25.769007 32.034227 55.358007
-24.266435 33.164075 55.323998
-22.476097 33.732095 55.255748
-20.765381 34.455568 55.196972
-19.183186 35.429962 55.153488
-17.536731 36.278896 55.102359
-15.760157 36.873788 55.035747
-14.243821 37.976763 55.000099
-12.259102 38.165281 54.908721
-10.262218 38.330047 54.815894
-8.265333 38.494813 54.723068
-6.268449 38.659580 54.630242
-4.617938 39.500596 54.578630
-2.767394 39.951073 54.503216
-1.102532 39.085828 54.390102
0.894353 39.250594 54.297275
2.891237 39.415361 54.204449
4.888122 39.580127 54.111623
6.603119 38.870411 54.001572
8.549869 38.879648 53.905682
10.214731 38.014404 53.792568
12.120123 37.895338 53.694151
13.876478 37.313925 53.586627
15.641609 36.759738 53.479639
17.402352 36.191938 53.372383
19.163096 35.624138 53.265128
20.689063 34.328010 53.143526
22.215031 33.031883 53.021924
23.975775 32.464082 52.914668
25.530515 31.257213 52.794825
27.262486 30.600155 52.685811
28.108030 28.954225 52.585376
29.656763 28.277432 52.484716
30.714317 26.740495 52.377686
31.903613 25.271286 52.266557
33.027038 23.768213 52.157478
33.931372 22.152507 52.055214
34.776916 20.506577 51.954779
35.435048 18.764300 51.860175
35.596208 16.766532 51.781030
35.757368 14.768764 51.701885
35.918529 12.770997 51.622741
36.079689 10.773229 51.543596
36.240849 8.775461 51.464451
36.176231 6.850202 51.399049
35.534343 5.110332 51.368784
35.695503 3.112564 51.289640
34.464540 1.561876 51.295230
33.893977 -0.200899 51.260624
32.595924 -1.730042 51.270299
31.297870 -3.259184 51.279973
29.999817 -4.788327 51.289647
29.429254 -6.551102 51.255041
27.910032 -7.648443 51.291031
26.484745 -8.929178 51.315845
24.901693 -9.901897 51.359430
23.397523 -11.028624 51.393630
21.893353 -12.155350 51.427830
20.247327 -13.005122 51.478908
18.600872 -13.854056 51.530038
16.888129 -14.573570 51.589055
15.307962 -15.551923 51.632297
13.387074 -15.865063 51.716081
11.882904 -16.991790 51.750280
9.886020 -17.156556 51.843107
7.889135 -17.321323 51.935933
5.892251 -17.486089 52.028759
4.035624 -17.924690 52.104896
2.391196 -18.777582 52.155785
-3.647780 -17.993227 51.525499
-5.173156 -16.893235 51.640084
-7.177364 -16.763898 51.743750
-9.181571 -16.634562 51.847417
-10.706947 -15.534569 51.962002
-12.711154 -15.405233 52.065668
-14.296237 -14.426273 52.178891
-15.958118 -13.602995 52.290363
-17.766114 -13.075910 52.398504
-19.291490 -11.975918 52.513088
-21.282346 -11.819517 52.617060
-22.605643 -10.309881 52.736251
-24.267524 -9.486603 52.847723
-25.590820 -7.976966 52.966915
-27.397202 -7.446610 53.075093
-28.936164 -6.908788 53.170319
-29.827327 -5.251957 53.273397
-30.451681 -3.504245 53.366525
-31.774977 -1.994608 53.485717
-32.500816 -0.281464 53.582630
-33.697530 1.271289 53.697102
-34.296787 3.027551 53.789295
-35.174306 4.689030 53.891864
-35.495300 6.540074 53.973681
-35.932685 8.351473 54.059838
-35.969774 10.299222 54.131068
-36.691065 12.013915 54.227812
-36.558281 14.019527 54.292708
-36.425497 16.025139 54.357604
-36.292714 18.030751 54.422499
-35.190682 19.558956 54.422480
-34.734072 21.405066 54.465688
-33.955866 23.092774 54.487357
-33.082634 24.733675 54.502661
-32.721051 26.626591 54.552233
-31.185988 27.338252 54.501718
-29.674907 28.664980 54.474303
-28.849188 30.329284 54.492790
-27.322278 31.609269 54.462927
-25.581818 32.258707 54.400043
-24.591211 33.436141 54.393033
-22.933780 34.330739 54.342988
-21.243521 35.128402 54.287866
-19.618920 36.119937 54.242898
-17.961490 37.014536 54.192853
-16.219862 37.660521 54.129788
-14.463572 38.263217 54.064457
-12.642422 38.674397 53.989096
-10.705785 38.744576 53.895877
-8.980785 39.439660 53.835384
-7.323355 40.334259 53.785339
-5.319148 40.204922 53.681672
-3.314940 40.075586 53.578005
-1.310733 39.946250 53.474338
0.693474 39.816913 53.370671
2.697682 39.687577 53.267004
4.701889 39.558241 53.163337
6.706096 39.428905 53.059671
8.710304 39.299568 52.956004
10.714511 39.170232 52.852337
12.239887 38.070239 52.737753
14.244094 37.940903 52.634086
15.846192 36.996434 52.521251
17.773678 36.711574 52.415834
19.299054 35.611581 52.301250
20.831835 34.526599 52.186835
22.493716 33.703321 52.075363
24.354013 33.282258 51.968415
25.817479 32.056764 51.852419
27.140775 30.547128 51.733227
28.802656 29.723849 51.621755
30.125953 28.214213 51.502563
31.449249 26.704577 51.383371
32.772545 25.194940 51.264179
34.095842 23.685304 51.144987
35.419138 22.175668 51.025796
36.018395 20.419406 50.933603
36.816073 18.730732 50.834011
37.940948 17.153509 50.722218
38.598400 15.417070 50.627855
38.465616 13.411458 50.562959
38.332832 11.405846 50.498063
39.223996 9.749015 50.394985
39.091212 7.743403 50.330089
37.989180 6.215198 50.330109
37.856396 4.209586 50.265213
37.608098 2.260872 50.208053
36.621581 0.675769 50.200336
35.956660 -1.067737 50.171080
35.130941 -2.732041 50.152593
34.284734 -4.386254 50.135479
32.794141 -5.723073 50.161522
31.283061 -7.049800 50.188937
30.457342 -8.714104 50.170450
28.701053 -9.316800 50.235782
27.189972 -10.643527 50.263197
25.645319 -11.871127 50.295804
23.922602 -12.572950 50.355944
22.166312 -13.175646 50.421276
20.655232 -14.502373 50.448691
18.898942 -15.105068 50.514022
17.142653 -15.707764 50.579354
15.386364 -16.310460 50.644686
13.696531 -17.109384 50.699741
11.692324 -16.980048 50.803408
9.872287 -17.394515 50.878597
8.030687 -17.745310 50.957120
6.026479 -17.615974 51.060787
4.358211 -18.478571 51.112508
2.364842 -18.381236 51.214499
0.360634 -18.251900 51.318165
-1.643573 -18.122564 51.421832
-5.077866 -47.561582 14.631745
-6.560423 -46.421430 14.833001
-8.547262 -46.238810 15.054372
-10.029819 -45.098658 15.255628
-12.016659 -44.916038 15.476999
-13.572441 -43.914926 15.681176
-15.486055 -43.593266 15.899626
-16.968612 -42.453114 16.100882
-18.811818 -41.997764 16.316524
-20.438008 -41.130342 16.523509
-21.920565 -39.990190 16.724766
-23.403122 -38.850038 16.926022
-24.965632 -37.861700 17.130467
-26.593230 -36.996954 17.337509
-27.864248 -35.455130 17.530328
-28.786399 -34.370095 17.669015
-30.236137 -33.202568 17.867706
-31.662991 -31.956647 18.066741
-32.934009 -30.414823 18.259559
-33.477555 -28.645834 18.381890
-35.082313 -27.737717 18.588020
-35.991202 -26.119050 18.744448
-36.919717 -24.470274 18.904080
-37.670101 -22.765873 19.046452
-38.509551 -21.089285 19.197453
-38.550357 -19.163307 19.271070
-39.159651 -17.414848 19.399771
-39.999101 -15.738260 19.550773
-40.180996 -13.856339 19.638061
-40.649201 -12.063823 19.753090
-40.459852 -10.065974 19.804406
-40.270502 -8.068126 19.855722
-40.081153 -6.070277 19.907038
-39.891804 -4.072429 19.958354
-38.935552 -2.480516 19.912170
-38.562446 -0.579934 19.940124
-37.422437 0.914713 19.870577
-36.335812 2.437617 19.807817
-36.093079 4.407209 19.852346
-34.379464 4.986006 19.687875
-33.512883 6.625384 19.653091
-31.974086 7.908944 19.532844
-31.107506 9.548322 19.498060
-29.568708 10.831882 19.377813
-28.029910 12.115443 19.257566
-26.491113 13.399003 19.137320
-24.894335 14.492829 19.003986
-23.190329 15.235757 18.846452
-22.131699 16.246668 18.768322
-20.338574 16.697962 18.590673
-18.799776 17.981522 18.470426
-17.118090 18.797493 18.317929
-15.131251 18.614873 18.096558
-13.513817 19.641103 17.958563
-11.788845 20.315422 17.796296
-9.802006 20.132802 17.574925
-8.130803 20.983077 17.424794
-6.459600 21.833352 17.274663
-4.472761 21.650732 17.053293
-2.485921 21.468112 16.831922
-0.733536 22.052724 16.663468
1.172121 22.135767 16.460420
3.158960 21.953147 16.239050
5.145799 21.770527 16.017679
6.817002 22.620802 15.867548
8.803842 22.438182 15.646177
10.338966 21.397846 15.442824
12.273238 21.115410 15.223550
14.260077 20.932790 15.002179
16.246916 20.750170 14.780809
18.233756 20.567551 14.559438
19.903285 19.782423 14.350724
21.703152 19.244779 14.136811
23.689991 19.062159 13.915440
25.172548 17.922007 13.714184
27.159387 17.739387 13.492813
28.754441 16.812844 13.287070
30.124501 15.459083 13.090301
32.009639 15.083351 12.872987
33.593897 14.136311 12.667674
35.076454 12.996159 12.466417
36.559011 11.856007 12.265161
38.163452 10.947288 12.059043
39.524125 9.575703 11.862648
41.062068 8.540717 11.659183
42.689666 7.675970 11.452141
43.993266 6.710049 11.276494
44.860812 5.042235 11.122769
45.672165 3.356873 10.974490
46.675375 1.731421 10.807621
47.946393 0.189597 10.614802
49.274566 -0.768650 10.436773
49.390067 -2.671304 10.355919
51.008719 -3.538844 10.149744
50.833741 -5.532205 10.097036
51.658819 -7.213281 9.947426
52.498269 -8.889869 9.796425
53.191851 -10.612007 9.659557
53.148369 -12.564306 9.594107
52.959020 -14.562155 9.542791
52.769671 -16.560003 9.491475
52.580321 -18.557852 9.440159
52.390972 -20.555700 9.388843
51.634115 -22.253156 9.409678
51.061614 -24.048196 9.407074
50.872264 -26.046044 9.355758
50.682915 -28.043893 9.304442
49.289042 -28.791935 9.428263
48.422462 -30.431313 9.463047
47.318142 -31.944851 9.528056
46.017084 -33.354251 9.618078
45.038124 -34.934144 9.667149
43.611706 -36.277189 9.773109
42.072908 -37.560750 9.893355
40.489843 -38.699448 10.023594
38.772124 -39.397504 10.184223
37.233327 -40.681064 10.304470
35.694529 -41.964625 10.424717
33.932542 -42.517818 10.595338
32.170556 -43.071012 10.765959
30.631758 -44.354572 10.886206
28.791422 -44.651372 11.074510
27.107786 -45.460959 11.227448
25.345800 -46.014153 11.398069
23.583813 -46.567347 11.568690
21.790974 -47.019576 11.746274
20.059841 -47.673734 11.909932
18.132932 -47.687231 12.117776
16.146093 -47.504611 12.339147
14.474890 -48.354886 12.489277
12.488051 -48.172266 12.710648
10.580344 -48.248601 12.914159
8.830008 -48.839921 13.082150
6.843169 -48.657301 13.303521
4.856330 -48.474681 13.524891
2.869491 -48.292061 13.746262
0.882651 -48.109442 13.967633
-1.104188 -47.926822 14.189003
-3.091027 -47.744202 14.410374
-8.655629 -37.928013 -21.111868
-10.320374 -37.080229 -20.901930
-12.304901 -37.266379 -20.674908
-14.289429 -37.452528 -20.447886
-16.273957 -37.638678 -20.220865
-18.258485 -37.824828 -19.993843
-19.923230 -36.977043 -19.783904
-21.907758 -37.163193 -19.556882
-23.616286 -36.456973 -19.344605
-25.557030 -36.501558 -19.119922
-27.356450 -36.089213 -18.902789
-29.206302 -35.839923 -18.682962
-31.190830 -36.026073 -18.455940
-32.853636 -35.172022 -18.246105
-34.520318 -34.330504 -18.036063
-36.367679 -34.073160 -17.816369
-38.169590 -33.668870 -17.599102
-39.881721 -32.974299 -17.386632
-41.638743 -32.424868 -17.171764
-43.483606 -32.159451 -16.952203
-45.378907 -32.057108 -16.729948
-47.132879 -31.497816 -16.515243
-48.666828 -30.227144 -16.312292
-50.197728 -28.946612 -16.109503
-51.954750 -28.397181 -15.894635
-53.485650 -27.116648 -15.691846
-55.242671 -26.567218 -15.476978
-56.801559 -25.377176 -15.272695
-58.530593 -24.737254 -15.059322
-60.131048 -23.681608 -14.852817
-61.145372 -22.550103 -14.712958
-62.881056 -21.931684 -14.499230
-63.760151 -20.362952 -14.366595
-65.178127 -19.633614 -14.187636
-66.396545 -18.245686 -14.019078
-67.458809 -17.269182 -13.876658
-69.146554 -16.495762 -13.665490
-70.073589 -15.082031 -13.530295
-70.931346 -13.444311 -13.398800
-72.462246 -12.163778 -13.196011
-73.320004 -10.526058 -13.064516
-74.177762 -8.888338 -12.933021
-75.264848 -7.372306 -12.777238
-75.893277 -5.612897 -12.670031
-76.577799 -3.883253 -12.556884
-77.608793 -2.337457 -12.407041
-77.890749 -0.394201 -12.336530
-79.023208 1.097756 -12.175941
-79.203699 3.094852 -12.116177
-79.384191 5.091948 -12.056412
-79.564683 7.089044 -11.996648
-79.745174 9.086140 -11.936883
-79.925666 11.083236 -11.877118
-80.106158 13.080332 -11.817354
-79.260149 14.757870 -11.883093
-79.440640 16.754966 -11.823329
-79.557092 18.732126 -11.771394
-78.281446 20.275914 -11.889662
-77.929114 22.107137 -11.895043
-77.181845 23.815413 -11.948710
-77.263596 25.781771 -11.901018
-76.417587 27.459308 -11.966757
-75.532443 29.124663 -12.037282
-74.256797 30.668451 -12.155550
-73.706996 32.438201 -12.185074
-72.431350 33.981988 -12.303343
-71.155703 35.525776 -12.421611
-69.880057 37.069564 -12.539880
-68.604411 38.613352 -12.658149
-67.328764 40.157140 -12.776417
-65.713615 41.050717 -12.946771
-64.825290 42.692859 -13.018116
-63.520954 43.660973 -13.150899
-61.891949 44.528015 -13.323379
-60.616303 46.071802 -13.441647
-59.340657 47.615590 -13.559916
-57.711652 48.482632 -13.732395
-56.082647 49.349673 -13.904874
-54.453643 50.216715 -14.077353
-52.929862 51.285281 -14.233689
-51.445059 52.428494 -14.384046
-49.566628 52.817840 -14.594791
-47.975727 53.757857 -14.761424
-46.490923 54.901070 -14.911781
-45.006120 56.044284 -15.062137
-43.050609 56.286007 -15.284707
-41.536788 57.373646 -15.439515
-40.051985 58.516860 -15.589872
-38.067457 58.703009 -15.816894
-36.534590 59.754173 -15.974624
-34.598125 60.032372 -16.194272
-32.613597 60.218522 -16.421294
-30.940859 61.001805 -16.600482
-29.144265 61.547885 -16.798672
-27.159737 61.734034 -17.025694
-25.674934 62.877248 -17.176050
-23.690406 63.063397 -17.403072
-21.705878 63.249547 -17.630094
-19.721350 63.435696 -17.857115
-17.736822 63.621846 -18.084137
-15.752294 63.807996 -18.311159
-14.159665 64.744703 -18.478057
-12.282962 65.137359 -18.688537
-10.458326 64.806541 -18.907017
-8.633690 64.475724 -19.125497
-6.649162 64.661873 -19.352519
-4.735019 64.620452 -19.575781
-2.999890 64.000239 -19.789479
-1.015362 64.186388 -20.016501
0.969166 64.372538 -20.243523
2.953694 64.558688 -20.470545
4.618438 63.710903 -20.680483
6.602966 63.897053 -20.907505
8.587494 64.083202 -21.134527
10.252238 63.235418 -21.344465
12.208780 63.331082 -21.569992
13.901510 62.573784 -21.781426
15.566254 61.725999 -21.991364
17.253723 60.951688 -22.202517
19.215526 61.064365 -22.428325
20.880271 60.216580 -22.638263
22.750908 60.034497 -22.859201
24.507930 59.485066 -23.074069
26.038830 58.204534 -23.276858
27.859031 57.859377 -23.495101
29.778994 57.836774 -23.718673
31.309894 56.556241 -23.921462
32.840794 55.275709 -24.124251
34.518008 54.468240 -24.334855
36.354837 54.176847 -24.553987
37.885737 52.896314 -24.756775
39.512240 51.924887 -24.964671
41.173659 51.066351 -25.174432
42.704559 49.785818 -25.377221
44.235459 48.505286 -25.580009
45.513103 47.090369 -25.755975
46.624117 45.587033 -25.914293
48.601441 45.749892 -26.140930
49.465017 44.130984 -26.272735
50.322775 42.493264 -26.404230
51.853675 41.212731 -26.607019
52.711433 39.575011 -26.738514
54.242333 38.294478 -26.941303
55.419332 36.826156 -27.106609
55.957848 35.019038 -27.204292
56.732283 33.337104 -27.326963
57.673364 31.743597 -27.467282
58.531122 30.105877 -27.598777
59.177692 28.356095 -27.707905
59.358184 26.358999 -27.767670
60.431253 24.835529 -27.921969
60.671134 22.869946 -27.988023
60.851626 20.872850 -28.047788
61.032117 18.875754 -28.107553
61.212609 16.878658 -28.167317
61.393101 14.881562 -28.227082
60.547092 13.204024 -28.161342
60.727583 11.206928 -28.221107
60.511351 9.333336 -28.232366
60.062066 7.532295 -28.215132
59.411750 5.793836 -28.173319
58.861949 4.024086 -28.143795
58.312149 2.254336 -28.114271
57.036502 0.710549 -27.996002
56.858521 -1.174952 -28.011939
55.936901 -2.828951 -27.936955
55.166503 -4.530027 -27.880460
54.111454 -6.142489 -27.789162
53.474484 -7.885102 -27.748981
51.932649 -8.779280 -27.587159
50.703262 -10.337469 -27.474546
49.753843 -11.416072 -27.385156
48.478197 -12.959859 -27.266888
46.849192 -13.826901 -27.094408
46.187318 -15.561761 -27.051182
44.869148 -16.844357 -26.922898
43.394741 -18.007480 -26.774137
41.899541 -19.130784 -26.622185
40.414737 -20.273997 -26.471829
38.861085 -21.285351 -26.310910
37.232080 -22.152393 -26.138431
35.603075 -23.019435 -25.965952
34.327429 -24.563223 -25.847683
32.490995 -25.032999 -25.643381
31.006191 -26.176213 -25.493025
29.440414 -27.164347 -25.330246
27.536860 -27.505576 -25.115646
26.182405 -28.898431 -24.985287
24.567252 -29.792002 -24.814933
22.582724 -29.978152 -24.587912
21.097921 -31.121365 -24.437555
19.113393 -31.307515 -24.210533
17.628589 -32.450728 -24.060177
15.701659 -32.747188 -23.841992
14.159258 -33.780091 -23.682799
12.174730 -33.966240 -23.455777
10.190202 -34.152390 -23.228755
8.478923 -34.861862 -23.043654
6.720870 -35.481753 -22.851377
4.736342 -35.667902 -22.624355
2.751814 -35.854052 -22.397333
0.767286 -36.040202 -22.170312
-1.217242 -36.226351 -21.943290
-2.708540 -37.357127 -21.791937
-4.686573 -37.555714 -21.565912
-6.671101 -37.741864 -21.338890
