ply
format ascii 1.0
element vertex 1107
property float x
property float y
property float z
end_header
-13.461169 -21.169089 40.950691
-15.101987 -20.247476 41.105768
-17.110553 -20.343804 41.249355
-18.954316 -19.983949 41.398091
-20.759937 -19.518519 41.548019
-22.443055 -18.713994 41.701774
-24.409321 -18.693234 41.846682
-26.050139 -17.771622 42.001759
-27.936202 -17.528854 42.149173
-29.680571 -16.893876 42.301015
-31.340342 -16.024724 42.455500
-32.217935 -14.577991 42.574467
-34.038350 -14.153510 42.723932
-35.015335 -12.981899 42.839793
-36.736358 -12.282295 42.992365
-38.244038 -10.992151 43.151602
-39.728370 -9.637382 43.311568
-40.978047 -8.769034 43.435964
-42.046345 -7.218001 43.572848
-43.058727 -5.640589 43.706630
-44.543060 -4.285819 43.866597
-45.251239 -2.564901 43.983502
-45.437709 -0.597867 44.071461
-46.922041 0.756903 44.231428
-47.478432 2.549427 44.339911
-47.569029 4.561689 44.422551
-47.659627 6.573951 44.505192
-47.750224 8.586212 44.587832
-47.840821 10.598474 44.670473
-47.628413 12.501567 44.726780
-47.007086 14.257332 44.747551
-46.351322 16.000690 44.765328
-46.173350 17.916190 44.824628
-45.074232 19.499814 44.803876
-44.324685 21.209384 44.813503
-43.079478 22.740374 44.780054
-41.723269 24.231371 44.736959
-40.367060 25.722369 44.693863
-39.010852 27.213367 44.650768
-37.646292 28.686511 44.606386
-35.974843 29.503560 44.514730
-35.128041 30.807890 44.501923
-33.332907 31.360514 44.391215
-31.653108 32.159710 44.298273
-30.017595 33.053586 44.212152
-28.466656 34.128270 44.139060
-26.613709 34.557295 44.019446
-24.907150 35.299282 43.922381
-22.930519 35.463883 43.783714
-21.347644 36.470293 43.705703
-19.339078 36.566621 43.562116
-17.788138 37.641305 43.489024
-15.779572 37.737633 43.345437
-13.771006 37.833961 43.201851
-11.762440 37.930288 43.058264
-9.753874 38.026616 42.914678
-7.745308 38.122944 42.771091
-5.736742 38.219271 42.627505
-3.840046 38.005938 42.480423
-2.087358 37.393986 42.328841
-0.078792 37.490314 42.185255
1.653101 36.820798 42.033023
3.570592 36.665029 41.886591
5.211410 35.743417 41.731514
7.146247 35.635658 41.585624
8.860795 34.918132 41.432851
10.501613 33.996519 41.277774
12.142431 33.074907 41.122696
13.863689 32.375956 40.970133
15.424067 31.231682 40.812542
17.092391 30.386209 40.658325
18.576724 29.031439 40.498358
20.253493 28.364571 40.350267
21.114087 26.715554 40.224906
22.598420 25.360784 40.064940
24.082752 24.006014 39.904973
24.875746 22.325107 39.783363
26.360079 20.970337 39.623396
26.663281 19.058371 39.528960
27.731579 17.507338 39.392076
28.047721 15.601477 39.296922
28.890474 13.944043 39.172551
28.981071 11.931782 39.089910
29.071668 9.919520 39.007270
29.162265 7.907259 38.924629
29.252863 5.894997 38.841989
28.620057 4.143367 38.822216
28.419127 2.236139 38.764911
27.494795 0.589542 38.770474
26.704421 -1.105318 38.764395
26.065876 -2.854880 38.745121
25.427331 -4.604442 38.725847
24.071122 -6.095440 38.768943
22.714913 -7.586437 38.812038
21.358704 -9.077435 38.855133
20.582948 -10.533655 38.856996
18.716769 -10.934390 38.978649
17.360560 -12.425387 39.021744
15.930129 -13.757707 39.076273
14.324552 -14.715580 39.157782
12.644752 -15.514776 39.250724
10.964952 -16.313971 39.343666
9.268745 -17.078087 39.439136
7.605353 -17.912361 39.529551
5.709239 -18.249099 39.655815
3.922163 -18.818949 39.765282
2.149733 -19.420111 39.872494
0.562564 -20.417340 39.951167
-1.409773 -20.591123 40.089172
-3.418339 -20.687450 40.232759
-5.426905 -20.783778 40.376345
-7.435471 -20.880106 40.519932
-9.444037 -20.976433 40.663518
-11.452603 -21.072761 40.807105
7.302680 -49.619269 -57.859508
5.642346 -48.749352 -57.748757
3.650209 -48.909292 -57.608439
1.797950 -48.635075 -57.480585
-0.002262 -48.199314 -57.357370
-1.994400 -48.359254 -57.217052
-3.986537 -48.519194 -57.076734
-5.698105 -47.808296 -56.961418
-7.639008 -47.809216 -56.825665
-9.446132 -47.394907 -56.701834
-11.202835 -46.824102 -56.582495
-12.951813 -46.229322 -56.463845
-14.716241 -45.682494 -56.343818
-16.604284 -45.519344 -56.212776
-18.264617 -44.649427 -56.102024
-19.986350 -43.970082 -55.985802
-21.585284 -42.909594 -55.880522
-23.265134 -42.100255 -55.768031
-25.021837 -41.529451 -55.648693
-26.566284 -40.299843 -55.548268
-28.535243 -40.387843 -55.410015
-30.218754 -39.589865 -55.297199
-31.134371 -38.169614 -55.241931
-32.891074 -37.598810 -55.122593
-34.413156 -36.299787 -55.024161
-36.169859 -35.728983 -54.904822
-37.691941 -34.429960 -54.806390
-38.534366 -32.782536 -54.757645
-40.136764 -32.132633 -54.649587
-41.133494 -30.564307 -54.589561
-42.379947 -29.123992 -54.511279
-43.498001 -27.617859 -54.442384
-45.020083 -26.318836 -54.343952
-45.862508 -24.671412 -54.295207
-46.866312 -23.106712 -54.234664
-47.987904 -21.602392 -54.165510
-49.069440 -20.077539 -54.099285
-49.269906 -18.101037 -54.097470
-50.391498 -16.596717 -54.028317
-50.551909 -14.599682 -54.029430
-50.712320 -12.602647 -54.030544
-50.872731 -10.605612 -54.031658
-51.994323 -9.101292 -53.962505
-52.154734 -7.104257 -53.963618
-52.213152 -5.140281 -53.971662
-51.448047 -3.443239 -54.035654
-51.608458 -1.446204 -54.036768
-50.741360 0.217779 -54.107689
-50.901771 2.214814 -54.108803
-50.096375 3.898797 -54.175532
-49.527708 5.659512 -54.226178
-48.959041 7.420227 -54.276824
-48.390374 9.180942 -54.327470
-47.095148 10.706153 -54.427478
-46.526481 12.466868 -54.478124
-45.231254 13.992079 -54.578131
-44.504639 15.443368 -54.637914
-43.019509 16.596551 -54.748905
-42.183885 18.270736 -54.817688
-40.807763 19.201023 -54.919679
-39.512536 20.726235 -55.019687
-38.078052 21.978635 -55.127749
-36.574232 23.095203 -55.239822
-35.699570 24.756734 -55.311256
-34.362486 25.699675 -55.410595
-32.659727 26.426517 -55.534175
-31.076328 27.387189 -55.650851
-29.659328 28.673841 -55.757902
-28.138023 29.756157 -55.870986
-26.494944 30.599914 -55.991114
-24.851865 31.443671 -56.111241
-23.166591 32.204765 -56.233810
-21.565708 33.131185 -56.351497
-19.922629 33.974942 -56.471624
-18.174054 34.612028 -56.597854
-16.636472 35.662456 -56.711880
-14.681717 35.895630 -56.850035
-13.002461 36.668516 -56.972255
-11.189379 37.179231 -57.102216
-9.197242 37.339171 -57.242534
-7.697042 38.462832 -57.354397
-5.704904 38.622772 -57.494715
-4.091362 39.524392 -57.613134
-2.212567 39.906373 -57.746896
-0.220429 40.066313 -57.887214
1.771708 40.226252 -58.027532
3.763846 40.386192 -58.167850
5.755984 40.546131 -58.308168
7.748121 40.706071 -58.448485
9.740259 40.866011 -58.588803
11.732397 41.025950 -58.729121
13.724534 41.185890 -58.869439
15.550363 40.829639 -58.994937
17.377005 40.475912 -59.120508
19.369143 40.635852 -59.260826
21.289714 40.573663 -59.394766
23.021614 39.925875 -59.511895
25.013751 40.085814 -59.652213
26.794444 39.589470 -59.773689
28.666222 39.375837 -59.903282
30.326556 38.505920 -60.014033
32.299174 38.605276 -60.152611
33.979027 37.795942 -60.265102
35.812580 37.463668 -60.391289
37.569283 36.892864 -60.510627
39.291831 36.216048 -60.626922
41.082689 35.751255 -60.749305
42.839392 35.180451 -60.868643
44.604635 34.636154 -60.988743
46.352798 34.038843 -61.107321
47.925302 32.896320 -61.210246
49.631583 32.169016 -61.325091
51.245968 31.156486 -61.431748
52.910368 30.299190 -61.542862
54.432450 29.000167 -61.641294
56.189153 28.429363 -61.760632
57.711235 27.130340 -61.859064
59.233317 25.831317 -61.957496
60.358660 24.936869 -62.030679
61.152788 23.264686 -62.075893
62.700079 22.043908 -62.176572
63.751915 21.046457 -62.243977
64.798123 19.503495 -62.307620
66.184327 18.310773 -62.397205
67.193468 17.180804 -62.460806
68.115995 15.574440 -62.515407
69.237586 14.070120 -62.584561
70.359178 12.565800 -62.653715
70.519589 10.568765 -62.652601
71.405593 8.943680 -62.704532
71.801592 7.067410 -62.720641
72.410786 5.300428 -62.752335
73.083594 3.566055 -62.788681
73.244005 1.569020 -62.787567
72.491497 -0.132106 -62.724431
72.537318 -2.091998 -62.715532
73.274907 -3.793164 -62.756613
73.819321 -5.593353 -62.783571
72.932077 -7.250806 -62.711282
72.085124 -8.921319 -62.641729
72.245535 -10.918354 -62.640615
71.378437 -12.582337 -62.569694
70.657409 -14.293666 -62.508697
70.088742 -16.054381 -62.458051
69.520074 -17.815096 -62.407404
68.224848 -19.340307 -62.307397
67.656181 -21.101022 -62.256751
67.087514 -22.861737 -62.206105
65.531853 -23.876748 -62.091033
64.149209 -25.230706 -61.985969
63.527650 -26.974276 -61.931730
61.937463 -27.835177 -61.815196
61.187939 -29.241588 -61.754088
59.725717 -30.439649 -61.644422
58.187540 -31.488912 -61.530362
56.787412 -32.808618 -61.424287
55.187141 -33.736235 -61.306635
53.849107 -35.177586 -61.204152
52.186741 -35.983559 -61.082908
50.562950 -36.865100 -60.963896
49.186342 -38.230882 -60.859182
47.276792 -38.552614 -60.723641
45.981566 -40.077826 -60.623633
44.338487 -40.921583 -60.503506
42.693605 -41.761807 -60.383274
40.704477 -41.927642 -60.243130
39.201268 -43.045408 -60.131093
37.209130 -43.205347 -59.990775
35.427388 -43.777459 -59.862627
33.784309 -44.621216 -59.742499
32.216593 -45.612610 -59.626730
30.224455 -45.772550 -59.486413
28.507220 -46.471032 -59.361996
26.732118 -47.056151 -59.234231
24.739980 -47.216091 -59.093914
22.747843 -47.376030 -58.953596
20.891347 -47.801697 -58.821124
19.255505 -48.659632 -58.701415
17.263368 -48.819571 -58.561097
15.271230 -48.979511 -58.420779
13.279093 -49.139450 -58.280461
11.286955 -49.299390 -58.140144
9.294817 -49.459330 -57.999826
0.858763 -50.541425 -58.059689
-0.669317 -49.445414 -57.959584
-2.670618 -49.322082 -57.820375
-4.671918 -49.198751 -57.681166
-6.673219 -49.075419 -57.541956
-8.674519 -48.952088 -57.402747
-10.202599 -47.856077 -57.302642
-11.788627 -46.879172 -57.197748
-13.731980 -46.636734 -57.063327
-15.449969 -45.931070 -56.947529
-17.261361 -45.417391 -56.824013
-19.111311 -44.982968 -56.697310
-20.790742 -44.198048 -56.584698
-22.772654 -44.034865 -56.447091
-24.101399 -42.529131 -56.363458
-25.848203 -41.882694 -56.245279
-27.428124 -40.893240 -56.140890
-29.091487 -40.075295 -56.029605
-30.754849 -39.257349 -55.918321
-32.418212 -38.439404 -55.807037
-33.961824 -37.375317 -55.705648
-35.410320 -36.115724 -55.612120
-37.017984 -35.183295 -55.505438
-37.680551 -33.543098 -55.469227
-39.343914 -32.725153 -55.357943
-40.982089 -31.898521 -55.248474
-41.614146 -30.152526 -55.215051
-43.018619 -28.802447 -55.125160
-44.606253 -27.828847 -55.020134
-45.934999 -26.323113 -54.936500
-46.541868 -24.568432 -54.904892
-48.074446 -23.481666 -54.804415
-48.365202 -21.841688 -54.794208
-49.418968 -20.241125 -54.730392
-50.162635 -18.533620 -54.688925
-51.061351 -16.879586 -54.636284
-51.239576 -14.977082 -54.635568
-52.568321 -13.471348 -54.551935
-52.736613 -11.565419 -54.551935
-53.060183 -9.713040 -54.540744
-53.513158 -7.905287 -54.520227
-53.390987 -5.899189 -54.541161
-53.437038 -3.951104 -54.549971
-54.167532 -2.239056 -54.509453
-54.045361 -0.232958 -54.530387
-53.923190 1.773140 -54.551321
-52.830487 3.304452 -54.637201
-52.708316 5.310550 -54.658135
-52.267614 7.160821 -54.700384
-51.452363 8.827863 -54.767698
-50.400739 10.379271 -54.850830
-49.821860 12.161947 -54.902326
-49.185865 13.916681 -54.957644
-48.191358 15.496030 -55.036953
-46.689837 16.827347 -55.150192
-45.907756 18.510616 -55.215286
-44.810678 19.437698 -55.297741
-43.309157 20.769015 -55.410979
-41.807636 22.100332 -55.524217
-40.306115 23.431649 -55.637455
-39.484179 25.079233 -55.705116
-37.740687 25.706275 -55.830929
-36.184883 26.879597 -55.946988
-34.488989 27.645176 -56.070326
-32.987468 28.976493 -56.183564
-31.237291 29.584077 -56.309724
-29.735770 30.915394 -56.422962
-27.985593 31.522978 -56.549122
-26.286995 32.280688 -56.672601
-24.637347 33.180869 -56.793537
-22.735062 33.345730 -56.927601
-21.233541 34.677047 -57.040839
-19.336751 34.857902 -57.174617
-17.484531 35.168482 -57.306079
-15.983010 36.499799 -57.419318
-14.036155 36.534934 -57.555698
-12.234000 36.991234 -57.684558
-10.385206 37.311785 -57.815842
-8.733646 38.206401 -57.936877
-6.734258 38.088635 -58.075987
-4.984636 38.697836 -58.202118
-3.083309 38.865485 -58.336132
-1.082009 38.742154 -58.475341
0.763207 39.073122 -58.606440
2.568940 39.519004 -58.735486
4.570240 39.395673 -58.874695
6.571541 39.272342 -59.013905
8.572841 39.149010 -59.153114
10.574142 39.025679 -59.292323
12.575442 38.902347 -59.431532
14.576743 38.779016 -59.570742
16.578043 38.655685 -59.709951
18.579344 38.532353 -59.849160
20.475996 38.193922 -59.979722
22.108725 37.313010 -60.088475
24.110025 37.189679 -60.227684
26.111326 37.066348 -60.366893
27.639406 35.970336 -60.466998
29.640707 35.847005 -60.606208
31.168787 34.750994 -60.706313
33.170087 34.627662 -60.845522
34.786748 33.713724 -60.952947
36.450111 32.895779 -61.064231
38.227548 32.312308 -61.184942
40.111453 31.947676 -61.314450
41.756929 31.092965 -61.424256
43.285009 29.996954 -61.524362
45.101541 29.493840 -61.648303
46.430286 27.988106 -61.731936
48.093649 27.170160 -61.843220
49.422394 25.664426 -61.926854
51.085757 24.846481 -62.038138
52.749119 24.028535 -62.149422
54.412482 23.210590 -62.260706
55.741227 21.704856 -62.344340
57.069972 20.199122 -62.427973
58.565811 19.036840 -62.525414
60.093892 17.940829 -62.625519
61.003567 16.808550 -62.682149
62.566779 15.784751 -62.785158
63.273798 14.235924 -62.825041
63.880667 12.481243 -62.856649
65.511253 11.595926 -62.965225
66.150899 9.908617 -62.999542
66.757768 8.153936 -63.031150
68.086513 6.648202 -63.114783
68.188718 4.719482 -63.110020
69.087434 3.065448 -63.162661
69.907120 1.384159 -63.209607
70.513989 -0.370522 -63.241215
70.762696 -2.248719 -63.247010
71.005851 -4.128830 -63.252406
71.539241 -5.908851 -63.278718
71.417070 -7.914949 -63.257784
71.294899 -9.921047 -63.236851
71.172728 -11.927145 -63.215917
71.050557 -13.933244 -63.194983
70.138209 -15.552785 -63.121172
69.835683 -17.470653 -63.088169
68.742980 -19.001965 -63.002288
68.378726 -20.889635 -62.965155
67.528106 -22.539375 -62.895474
67.405935 -24.545473 -62.874540
65.684316 -25.167028 -62.750292
64.869065 -26.834069 -62.682978
64.053814 -28.501111 -62.615664
62.552293 -29.832428 -62.502426
61.737041 -31.499470 -62.435112
60.235520 -32.830787 -62.321874
58.822088 -34.205197 -62.214531
57.670092 -35.105413 -62.128401
56.672288 -36.683150 -62.048870
55.104664 -37.380039 -61.934927
53.354487 -37.987623 -61.808768
51.852966 -39.318940 -61.695529
50.351445 -40.650257 -61.582291
48.672746 -41.465882 -61.459846
47.023098 -42.366064 -61.338910
45.349570 -43.196742 -61.216734
43.723802 -44.166428 -61.097039
41.849216 -44.411910 -60.964415
40.099039 -45.019494 -60.838255
38.423205 -45.843460 -60.715959
36.773558 -46.743642 -60.595023
34.848508 -46.842246 -60.459776
33.122609 -47.520493 -60.334878
31.348154 -48.057413 -60.207457
29.597977 -48.664997 -60.081297
27.822013 -49.197525 -59.953798
25.848967 -49.156432 -59.816057
24.171064 -49.974375 -59.693653
22.169764 -49.851044 -59.554444
20.520116 -50.751226 -59.433508
18.518815 -50.627894 -59.294299
16.517515 -50.504563 -59.155090
14.850593 -51.354469 -59.033256
12.866566 -51.281413 -58.894945
10.865266 -51.158082 -58.755736
8.863965 -51.034751 -58.616526
6.862665 -50.911419 -58.477317
4.861364 -50.788088 -58.338108
2.860064 -50.664756 -58.198899
-14.802929 -40.645347 -8.258895
-15.672862 -39.011428 -8.111340
-17.569565 -38.915417 -7.881323
-19.555907 -39.115540 -7.648388
-21.542248 -39.315664 -7.415454
-23.215020 -38.479861 -7.192723
-25.201362 -38.679985 -6.959789
-27.187703 -38.880109 -6.726854
-28.896643 -38.163793 -6.502947
-30.846817 -38.244430 -6.271189
-32.643191 -37.816967 -6.044437
-34.505930 -37.608751 -5.815525
-36.178703 -36.772948 -5.592795
-38.152150 -36.930473 -5.360280
-39.837817 -36.137269 -5.137130
-41.510590 -35.301466 -4.914400
-43.439382 -35.311469 -4.683338
-44.980067 -34.039290 -4.464906
-46.842476 -33.829985 -4.236005
-48.515249 -32.994182 -4.013275
-50.267299 -32.420286 -3.787965
-52.029710 -31.880618 -3.562318
-53.570394 -30.608439 -3.343886
-55.519908 -30.686898 -3.112150
-57.192681 -29.851095 -2.889420
-58.186876 -28.627694 -2.737821
-59.949286 -28.088025 -2.512173
-61.489971 -26.815847 -2.293742
-63.030655 -25.543668 -2.075310
-64.571339 -24.271489 -1.856879
-66.112024 -22.999311 -1.638447
-67.652708 -21.727132 -1.420016
-69.193392 -20.454953 -1.201584
-70.734077 -19.182774 -0.983152
-71.604010 -17.548855 -0.835597
-73.144695 -16.276676 -0.617166
-74.175699 -14.729623 -0.452591
-75.555313 -13.370578 -0.251179
-76.457899 -11.754268 -0.100173
-77.295180 -10.102739 0.043931
-77.791515 -8.267335 0.152010
-78.364296 -6.473159 0.268166
-79.125131 -4.780401 0.404193
-80.104163 -3.205320 0.563276
-80.458747 -1.293468 0.656375
-80.651262 0.705788 0.732350
-80.843778 2.705044 0.808324
-81.036293 4.704300 0.884298
-81.228809 6.703556 0.960273
-80.826740 8.522086 0.960156
-80.585907 10.389624 0.980673
-80.778422 12.388880 1.056647
-79.943005 14.075691 1.001073
-80.135520 16.074947 1.077048
-79.215435 17.170405 0.995676
-78.408578 18.865897 0.943757
-77.573160 20.552709 0.888183
-77.590731 22.498790 0.941769
-76.322305 24.053986 0.830782
-76.094841 25.925588 0.853010
-74.881987 26.932057 0.734172
-73.613560 28.487253 0.623184
-72.845706 29.836263 0.566777
-71.613023 31.195043 0.454881
-70.547634 32.246335 0.354915
-69.279207 33.801531 0.243927
-68.022730 35.360359 0.134468
-67.112031 36.458670 0.054298
-65.621399 37.594452 -0.094434
-64.217996 38.894877 -0.228349
-62.658981 39.901584 -0.388697
-61.323961 41.331084 -0.510996
-59.698353 42.212095 -0.682656
-58.215353 43.362282 -0.830091
-56.734144 44.515848 -0.977223
-55.178709 45.529313 -1.136963
-53.553101 46.410324 -1.308622
-51.927492 47.291335 -1.480282
-50.304175 48.176670 -1.651552
-48.676275 49.053356 -1.823601
-46.836625 49.530360 -2.031618
-45.355415 50.683926 -2.178750
-43.799450 51.696389 -2.338580
-41.887865 52.037616 -2.558816
-40.406656 53.191182 -2.705948
-38.420315 53.391306 -2.938882
-36.433973 53.591429 -3.171817
-34.952764 54.744996 -3.318948
-32.966423 54.945119 -3.551883
-30.980082 55.145243 -3.784818
-29.008671 55.373547 -4.015216
-27.512531 56.498933 -4.164884
-25.526190 56.699056 -4.397818
-23.539849 56.899180 -4.630753
-21.553508 57.099304 -4.863688
-19.567167 57.299428 -5.096622
-17.580825 57.499551 -5.329557
-15.594484 57.699675 -5.562491
-13.608143 57.899799 -5.795426
-11.621802 58.099922 -6.028360
-9.635461 58.300046 -6.261295
-7.962688 57.464243 -6.484025
-5.976347 57.664367 -6.716960
-4.065968 57.613537 -6.947422
-2.317233 57.028688 -7.172624
-0.330892 57.228812 -7.405559
1.442991 56.727043 -7.631580
3.328222 56.593133 -7.861224
5.314563 56.793256 -8.094158
6.987336 55.957454 -8.316889
8.714360 55.300881 -8.541384
10.646450 55.321775 -8.772553
12.460908 54.954055 -8.999894
14.001593 53.681877 -9.218326
15.978336 53.850293 -9.450948
17.651109 53.014490 -9.673678
19.323881 52.178688 -9.896408
21.051236 51.523204 -10.120915
22.982995 51.543009 -10.352073
23.905306 50.082127 -10.501333
25.667717 49.542459 -10.726980
27.422405 48.977275 -10.952376
28.538485 48.110386 -11.109162
30.189041 47.247345 -11.329949
31.824883 46.289535 -11.551477
33.365567 45.017356 -11.769908
34.906252 43.745177 -11.988340
36.446936 42.472999 -12.206772
38.118626 41.884404 -12.422832
39.079280 40.299411 -12.579974
40.841691 39.759743 -12.805621
41.711625 38.125823 -12.953176
42.626919 36.516367 -13.105525
44.122243 35.219725 -13.319163
45.662927 33.947546 -13.537595
46.532861 32.313627 -13.685150
47.402794 30.679707 -13.832705
48.943479 29.407529 -14.051137
49.473521 27.590303 -14.162777
49.666036 25.591047 -14.238751
50.882529 24.144029 -14.422926
51.948237 22.615692 -14.591168
52.140753 20.616436 -14.667142
52.333268 18.617180 -14.743117
52.525784 16.617924 -14.819091
52.718299 14.618668 -14.895065
52.910815 12.619412 -14.971040
53.103330 10.620156 -15.047014
52.267913 8.933344 -14.991440
52.188995 7.016592 -15.032678
51.625011 5.247277 -15.011840
51.817526 3.248021 -15.087815
51.291149 1.467275 -15.071790
50.146691 -0.125602 -14.976667
50.208013 -2.084981 -15.035852
49.503789 -3.811669 -14.997067
48.398019 -5.416306 -14.906895
47.129593 -6.971502 -14.795907
45.861167 -8.526699 -14.684920
44.592740 -10.081895 -14.573932
44.051172 -11.858023 -14.555963
42.782746 -13.413219 -14.444975
41.472215 -14.888943 -14.326836
39.888711 -15.849427 -14.162328
39.088706 -17.137751 -14.100460
37.607496 -18.291317 -13.953328
36.095926 -19.387576 -13.801040
35.223986 -20.540124 -13.726953
33.742777 -21.693690 -13.579821
32.261568 -22.847256 -13.432690
30.677533 -23.806737 -13.268092
29.299150 -25.154388 -13.138427
27.783498 -26.242944 -12.985445
26.336731 -27.461520 -12.844164
24.532281 -28.004966 -12.642126
22.906672 -28.885976 -12.470466
21.387971 -29.968776 -12.316966
19.655455 -30.647998 -12.127147
18.029847 -31.529009 -11.955487
16.439212 -32.476032 -11.789768
14.452871 -32.676156 -11.556834
12.795839 -33.497856 -11.379836
10.985320 -34.029846 -11.176767
9.504111 -35.183412 -11.029636
7.517770 -35.383536 -10.796701
5.531429 -35.583659 -10.563767
3.953432 -36.554538 -10.400195
2.063878 -36.937349 -10.183701
0.077537 -37.137473 -9.950766
-1.908804 -37.337596 -9.717831
-3.620549 -38.056025 -9.531541
-5.376355 -38.691286 -9.337765
-7.362696 -38.891410 -9.104831
-9.349037 -39.091534 -8.871896
-11.335378 -39.291657 -8.638962
-12.820138 -40.438522 -8.491227
-18.066072 -36.707493 -8.035030
-19.550857 -35.569744 -7.826859
-21.536768 -35.390764 -7.583948
-23.522680 -35.211783 -7.341036
-25.508591 -35.032803 -7.098125
-27.494503 -34.853823 -6.855214
-29.480414 -34.674843 -6.612302
-31.466326 -34.495863 -6.369391
-32.951111 -33.358114 -6.161220
-34.848473 -33.009719 -5.924447
-36.421807 -32.041385 -5.710137
-38.105428 -31.284055 -5.488182
-39.892503 -30.724656 -5.259055
-41.878415 -30.545676 -5.016143
-43.345212 -29.373512 -4.809219
-44.847984 -28.270178 -4.599801
-46.833896 -28.091198 -4.356889
-48.318680 -26.953449 -4.148718
-49.859123 -25.922185 -3.936688
-51.487600 -25.059353 -3.718555
-53.274161 -24.498970 -3.489464
-54.744556 -23.333690 -3.282290
-56.243731 -22.223472 -3.073121
-57.728515 -21.085723 -2.864950
-59.457011 -20.690716 -2.647197
-60.178200 -18.975789 -2.515338
-61.806678 -18.112957 -2.297206
-63.435155 -17.250125 -2.079073
-64.709283 -15.709341 -1.885505
-66.058084 -14.311424 -1.686761
-66.885972 -13.077104 -1.554818
-68.160099 -11.536320 -1.361251
-69.434227 -9.995536 -1.167683
-70.281016 -8.320165 -1.021807
-71.321474 -6.809531 -0.857061
-72.885043 -5.822515 -0.643428
-73.433254 -4.053109 -0.530874
-74.707381 -2.512325 -0.337307
-75.574175 -0.843255 -0.189198
-76.416753 0.833442 -0.043792
-76.352014 2.795892 0.000355
-77.075309 4.510157 0.132449
-77.917887 6.186854 0.277855
-77.996646 8.104110 0.338017
-78.576442 9.863568 0.454096
-79.419021 11.540265 0.599502
-79.234998 13.540282 0.630336
-79.050975 15.540299 0.661171
-78.866952 17.540317 0.692006
-78.682929 19.540334 0.722841
-78.498906 21.540351 0.753676
-77.909387 23.326458 0.730220
-77.180153 25.038861 0.688058
-76.996130 27.038878 0.718893
-76.667517 28.962620 0.730369
-75.677377 30.537388 0.653275
-74.943268 32.247219 0.610460
-74.081144 33.889518 0.550506
-72.546769 35.177186 0.400545
-71.138458 36.531357 0.267463
-70.778410 38.318509 0.271556
-69.063355 39.019306 0.084402
-68.201230 40.661605 0.024447
-66.666855 41.949273 -0.125513
-65.518475 43.440564 -0.223794
-64.045565 44.149093 -0.381702
-63.143569 45.661883 -0.449865
-61.424276 46.348913 -0.637892
-60.386688 47.421286 -0.733966
-58.718678 48.274889 -0.911436
-57.043821 49.106254 -1.090315
-56.181697 50.748554 -1.150270
-54.422531 51.306075 -1.346504
-52.663366 51.863596 -1.542739
-50.957765 52.595103 -1.727947
-49.289755 53.448706 -1.905417
-47.610660 54.266305 -2.085169
-45.851494 54.823826 -2.281403
-44.092329 55.381346 -2.477638
-42.333163 55.938867 -2.673873
-40.631801 56.684141 -2.858208
-38.963791 57.537745 -3.035678
-37.055667 57.611429 -3.262576
-35.309869 58.212368 -3.456059
-33.323957 58.033388 -3.698971
-31.655947 58.886992 -3.876441
-29.794216 59.111366 -4.093789
-28.002025 59.561616 -4.296822
-26.016113 59.382636 -4.539733
-24.291929 60.053781 -4.728767
-22.362191 60.057259 -4.960115
-20.376280 59.878279 -5.203026
-18.708269 60.731883 -5.380496
-16.722358 60.552903 -5.623407
-14.736446 60.373923 -5.866318
-12.750535 60.194943 -6.109230
-10.764623 60.015962 -6.352141
-8.778712 59.836982 -6.595052
-6.792800 59.658002 -6.837964
-4.806889 59.479022 -7.080875
-2.820977 59.300042 -7.323786
-0.835065 59.121062 -7.566698
1.150846 58.942082 -7.809609
2.974563 58.452787 -8.041276
4.621542 57.625353 -8.260691
6.607454 57.446373 -8.503603
8.568696 57.220195 -8.744804
10.078150 56.129644 -8.954685
12.064062 55.950664 -9.197597
13.548846 54.812915 -9.405768
15.534758 54.633935 -9.648679
17.065435 53.583989 -9.860032
18.693913 52.721157 -10.078165
20.490239 52.179456 -10.307933
21.975024 51.041707 -10.516105
23.579346 50.132662 -10.732563
25.445720 49.724978 -10.967187
26.930505 48.587229 -11.175359
28.464780 47.544166 -11.386961
30.093257 46.681334 -11.605094
31.721735 45.818503 -11.823226
33.350213 44.955671 -12.041359
34.855555 43.857253 -12.250955
36.340340 42.719504 -12.459127
37.155379 41.460602 -12.590178
38.429507 39.919818 -12.783746
40.057985 39.056986 -13.001879
41.332112 37.516202 -13.195447
42.606240 35.975418 -13.389014
44.168781 34.986436 -13.602576
45.212372 33.478431 -13.767628
46.058084 31.804364 -13.913340
47.685534 30.939565 -14.131401
48.820374 29.354914 -14.309425
49.507872 27.629376 -14.437523
50.056083 25.859970 -14.550077
51.330211 24.319186 -14.743645
52.190687 22.648126 -14.891048
53.033266 20.971429 -15.036454
52.974843 19.010969 -15.081307
53.691821 17.294715 -15.212695
54.534399 15.618018 -15.358101
54.350376 13.618001 -15.388936
54.441770 11.704724 -15.450508
55.008932 9.941286 -15.565177
54.824909 7.941269 -15.596012
54.640886 5.941252 -15.626847
54.456863 3.941235 -15.657682
54.272840 1.941217 -15.688517
53.404865 0.302004 -15.627779
52.954087 -1.557292 -15.622899
52.352868 -3.337227 -15.597876
51.635334 -5.055802 -15.557281
50.628620 -6.621826 -15.477967
50.316581 -8.554311 -15.491663
48.904371 -9.906425 -15.358059
48.047122 -11.551296 -15.298757
47.852374 -13.545655 -15.328156
46.317998 -14.833323 -15.178195
44.783623 -16.120991 -15.028235
43.741797 -17.179596 -14.931288
42.427139 -18.460504 -14.807500
41.075419 -19.232964 -14.665817
40.211345 -20.874235 -14.605601
38.678919 -22.162931 -14.455902
37.144544 -23.450599 -14.305941
35.385379 -24.008120 -14.109707
33.851003 -25.295787 -13.959746
32.191795 -26.177983 -13.784088
30.658177 -27.194106 -13.627035
29.470548 -28.053128 -13.507322
27.766904 -28.790989 -13.322517
26.098894 -29.644593 -13.145047
24.417842 -30.455838 -12.964892
22.658677 -31.013358 -12.768658
20.899511 -31.570879 -12.572423
19.365136 -32.858547 -12.422463
17.440940 -32.880028 -12.192256
15.772930 -33.733631 -12.014786
13.787018 -33.554651 -11.771875
12.103684 -34.358483 -11.591250
10.344519 -34.916004 -11.395016
8.465085 -35.082879 -11.174023
6.797075 -35.936482 -10.996553
4.842233 -35.858419 -10.760038
3.143153 -36.611106 -10.576172
1.157241 -36.432126 -10.333261
-0.828670 -36.253146 -10.090349
-2.496681 -37.106749 -9.912879
-4.482592 -36.927769 -9.669968
-6.468504 -36.748789 -9.427057
-8.371085 -36.840477 -9.201299
-10.122426 -37.423413 -9.006676
-12.108337 -37.244433 -8.763764
-14.094249 -37.065453 -8.520853
-16.080160 -36.886473 -8.277942
20.092428 -42.377892 75.763833
18.398553 -41.550076 75.776925
16.397005 -41.759617 75.761742
14.703130 -40.931801 75.774834
12.701582 -41.141342 75.759651
10.700033 -41.350883 75.744469
8.752187 -41.379363 75.734221
7.004610 -40.732608 75.742378
5.310736 -39.904792 75.755470
3.408404 -39.779814 75.749405
1.615313 -39.286517 75.753380
-0.371676 -39.446971 75.739535
-1.935379 -38.180266 75.764590
-3.716640 -37.647084 75.769651
-5.280342 -36.380378 75.794706
-7.061603 -35.847196 75.799767
-8.625305 -34.580491 75.824821
-10.241807 -33.491805 75.845024
-11.970269 -32.780603 75.854937
-12.861270 -31.149072 75.892693
-14.642530 -30.615890 75.897754
-15.533531 -28.984359 75.935509
-17.238333 -28.193386 75.947597
-17.761068 -26.578459 75.986722
-18.922273 -25.093467 76.019376
-19.987795 -23.556585 76.053836
-20.293338 -21.607543 76.102644
-20.503198 -19.606611 76.153259
-21.664402 -18.121619 76.185913
-21.874263 -16.120687 76.236528
-22.084124 -14.119754 76.287143
-21.913284 -12.231706 76.336704
-21.466116 -10.425595 76.385500
-21.580811 -8.452881 76.435852
-20.848108 -6.731436 76.483857
-20.020240 -5.038210 76.531598
-19.247637 -3.328596 76.579493
-18.364503 -1.651757 76.627082
-17.447593 0.015067 76.674577
-16.180678 1.578108 76.721103
-14.548736 2.468617 76.752055
-13.281821 4.031658 76.798581
-12.560824 5.466150 76.839123
-11.075502 6.626794 76.876330
-9.484808 7.593299 76.909042
-7.852866 8.483808 76.939994
-6.585951 10.046849 76.986520
-4.617988 10.318269 77.003136
-3.132666 11.478914 77.040343
-1.647344 12.639558 77.077551
0.306845 12.936355 77.094754
1.839526 14.009744 77.129941
3.841075 14.219285 77.145124
5.842623 14.428826 77.160306
7.327945 15.589471 77.197514
9.329494 15.799012 77.212696
11.331042 16.008553 77.227879
13.332591 16.218094 77.243061
15.334139 16.427635 77.258244
17.335688 16.637176 77.273427
19.337236 16.846718 77.288609
21.338785 17.056259 77.303792
23.340333 17.265800 77.318974
25.341882 17.475341 77.334157
27.035756 16.647525 77.321065
28.803372 16.068335 77.314749
30.731179 16.029250 77.323155
32.732728 16.238791 77.338338
34.426602 15.410975 77.325246
36.145974 14.669126 77.314497
37.927235 14.135943 77.309436
39.708496 13.602761 77.304374
41.489757 13.069578 77.299313
43.203648 12.309252 77.288060
44.834720 11.269690 77.269197
46.591397 10.653620 77.261876
48.397242 10.203325 77.259074
49.960944 8.936620 77.234020
51.065869 7.421106 77.200303
52.415647 6.038384 77.171210
53.388277 4.451123 77.134996
54.870350 3.140148 77.108400
55.761351 1.508618 77.070645
56.871890 -0.003851 77.037035
58.033095 -1.488842 77.004381
58.242955 -3.489775 76.953766
58.652653 -5.382330 76.906924
59.614020 -6.975699 76.870497
59.823881 -8.976631 76.819882
59.358303 -10.777284 76.771138
59.205873 -12.670790 76.721526
59.415734 -14.671723 76.670911
58.587865 -16.364949 76.623169
58.693355 -18.334934 76.572843
57.426440 -19.897975 76.526317
56.159526 -21.461016 76.479791
55.626396 -23.241638 76.431233
54.897773 -24.662080 76.391016
53.461325 -25.912770 76.351724
52.194410 -27.475810 76.305198
50.927495 -29.038851 76.258672
49.295553 -29.929361 76.227720
47.987391 -31.416406 76.182954
46.396696 -32.382911 76.150242
44.764754 -33.273420 76.119290
43.132812 -34.163930 76.088338
41.529877 -35.107881 76.056148
40.044555 -36.268526 76.018941
38.236986 -36.835457 75.995482
36.557684 -37.638711 75.966551
34.973102 -38.616476 75.933578
33.070814 -39.008897 75.914161
31.069265 -39.218438 75.898978
29.067717 -39.427979 75.883795
27.350251 -40.160918 75.856492
25.580847 -40.798165 75.831405
23.579298 -41.007706 75.816223
22.089397 -42.159914 75.779210
9.593661 -42.967920 75.750723
8.118919 -41.809855 75.773409
6.129050 -41.603359 75.769020
4.139181 -41.396863 75.764632
2.664439 -40.238798 75.787317
0.674570 -40.032302 75.782928
-0.887331 -39.035241 75.801033
-2.790041 -38.667741 75.801225
-4.264783 -37.509676 75.823910
-6.127827 -37.068902 75.826187
-7.729394 -36.145114 75.842207
-9.014408 -34.636574 75.874864
-10.678877 -33.828984 75.887577
-12.265238 -32.877107 75.904396
-13.628361 -31.512854 75.932948
-15.151819 -30.444780 75.953073
-16.141396 -29.375869 75.975826
-17.304867 -27.794208 76.010964
-17.832499 -26.023369 76.054089
-19.321632 -24.891887 76.076018
-19.985547 -23.372798 76.111980
-20.513179 -21.601959 76.155105
-21.774344 -20.049365 76.189015
-22.019236 -18.194404 76.235692
-22.829609 -16.507688 76.275265
-23.681358 -14.833283 76.314318
-23.475047 -12.844078 76.366663
-23.268735 -10.854874 76.419008
-23.062424 -8.865670 76.471353
-22.856112 -6.876465 76.523697
-22.272219 -5.091565 76.572614
-21.491550 -3.413138 76.619743
-21.185720 -1.477782 76.671184
-19.632786 -0.217217 76.711300
-18.079852 1.043348 76.751417
-17.200041 2.668131 76.797646
-16.320230 4.292914 76.843875
-14.767296 5.553479 76.883991
-13.214362 6.814045 76.924108
-11.661428 8.074610 76.964224
-9.890087 8.601849 76.986482
-8.337153 9.862415 77.026598
-6.565813 10.389654 77.048856
-4.794472 10.916894 77.071113
-3.241538 12.177459 77.111230
-1.688604 13.438025 77.151346
0.288578 13.274124 77.156772
2.278447 13.067628 77.161160
3.959443 13.898211 77.190805
5.833570 14.080333 77.204658
7.630308 14.522298 77.224839
9.376251 15.134812 77.249173
11.301172 15.146385 77.258872
13.291041 14.939889 77.263261
15.280910 14.733393 77.267649
17.270779 14.526897 77.272038
19.260648 14.320401 77.276426
21.250517 14.113905 77.280815
23.240386 13.907409 77.285203
25.230255 13.700913 77.289592
27.220124 13.494418 77.293980
29.209993 13.287922 77.298368
30.941687 12.604512 77.289188
32.674603 11.923361 77.280072
34.192517 10.845045 77.259656
36.139214 10.558799 77.261775
37.613956 9.400734 77.239090
39.603825 9.194238 77.243478
41.058428 7.998972 77.219735
42.553309 6.878108 77.198108
44.028051 5.720043 77.175423
45.570425 4.686911 77.156292
47.195840 3.807178 77.141526
48.457005 2.254583 77.107616
49.927018 1.087782 77.084682
51.343586 -0.177745 77.058939
52.604752 -1.730339 77.025029
53.986340 -2.682617 77.007200
54.757799 -4.380911 76.967138
55.285432 -6.151749 76.924013
56.479524 -7.724300 76.889260
57.074229 -9.475182 76.846978
57.104274 -11.394065 76.797602
57.935335 -13.074626 76.758289
57.923593 -15.005941 76.708388
58.560085 -16.744391 76.666631
58.353773 -18.733595 76.614286
58.147462 -20.722800 76.561941
56.989211 -22.196922 76.518241
56.782899 -24.186127 76.465896
56.576588 -26.175331 76.413551
55.977345 -27.680806 76.371771
54.320496 -28.541115 76.341477
53.422454 -30.156033 76.295414
52.003993 -31.489360 76.254076
50.989708 -33.041381 76.209068
49.436774 -34.301946 76.168952
47.883840 -35.562512 76.128835
46.330906 -36.823077 76.088719
44.621311 -37.557633 76.061413
43.006632 -38.610882 76.026345
41.259320 -39.218799 76.002123
39.682357 -40.398687 75.963971
37.897328 -40.879965 75.942833
36.139677 -41.453166 75.919456
34.535337 -42.541130 75.883543
32.545468 -42.334634 75.879154
30.825655 -43.034886 75.852684
28.874603 -42.958721 75.845121
27.064568 -43.356040 75.826028
25.203739 -43.582808 75.811088
23.303481 -43.677194 75.799372
21.532874 -44.206895 75.777054
19.543005 -44.000399 75.772666
17.553136 -43.793903 75.768277
15.563267 -43.587408 75.763889
13.573398 -43.380912 75.759500
11.583529 -43.174416 75.755112
