ply
format ascii 1.0
element vertex 974
property float x
property float y
property float z
end_header
4.240266 -32.299887 -22.288133
2.728678 -31.208154 -22.091256
0.745524 -31.090026 -21.858484
-1.237630 -30.971899 -21.625712
-3.220785 -30.853772 -21.392940
-5.203939 -30.735645 -21.160168
-6.715527 -29.643911 -20.963291
-8.698681 -29.525784 -20.730519
-10.681836 -29.407657 -20.497747
-12.607001 -29.169804 -20.269389
-13.923173 -27.674611 -20.087387
-15.688166 -27.106062 -19.871221
-17.555861 -26.749555 -19.647237
-19.182908 -25.896201 -19.441572
-20.694496 -24.804468 -19.244695
-22.504721 -24.329307 -19.025086
-24.189239 -23.594607 -18.815045
-25.803961 -22.715807 -18.610318
-27.453581 -21.909058 -18.402934
-29.103201 -21.102308 -18.195550
-30.419374 -19.607115 -18.013547
-32.218745 -19.109545 -17.794765
-33.730333 -18.017811 -17.597887
-35.368234 -17.186866 -17.391395
-36.571096 -16.224401 -17.232908
-37.615131 -14.634355 -17.080691
-39.195908 -13.685470 -16.878547
-39.862027 -12.081843 -16.769986
-41.511648 -11.275094 -16.562602
-43.149895 -10.444863 -16.356084
-44.080653 -8.834852 -16.216643
-45.074717 -7.227389 -16.069894
-45.870386 -5.550776 -15.944860
-46.988166 -3.986434 -15.784571
-48.603148 -3.108170 -15.579823
-49.235062 -1.433922 -15.473866
-49.485524 0.432721 -15.408503
-50.380390 2.074759 -15.272612
-51.026892 3.803364 -15.163903
-51.624169 5.549126 -15.060583
-52.221446 7.294887 -14.957262
-52.943184 8.997269 -14.840319
-52.821379 10.993664 -14.815700
-52.699573 12.990060 -14.791081
-53.594440 14.632098 -14.655190
-53.472634 16.628493 -14.630571
-53.350829 18.624889 -14.605952
-53.229023 20.621284 -14.581333
-53.107218 22.617680 -14.556715
-52.985412 24.614075 -14.532096
-52.863607 26.610471 -14.507477
-51.775576 28.134397 -14.604327
-50.969660 29.796273 -14.665712
-50.565740 31.654719 -14.676559
-50.042470 33.454804 -14.702410
-48.554039 34.782940 -14.849597
-48.267873 36.698966 -14.845640
-46.943625 38.107386 -14.972187
-46.091812 39.746819 -15.039341
-44.402657 40.374706 -15.223455
-43.597450 42.036929 -15.284750
-42.109019 43.365065 -15.431937
-40.809136 44.785399 -15.555420
-39.568051 45.632386 -15.683205
-38.079619 46.960522 -15.830392
-36.591188 48.288659 -15.977578
-35.102757 49.616795 -16.124765
-33.614325 50.944931 -16.271951
-31.878565 51.550030 -16.461925
-30.979795 52.938734 -16.539406
-29.090267 53.094313 -16.755981
-27.363263 53.725009 -16.944439
-25.729886 54.629412 -17.116701
-24.096508 55.533815 -17.288963
-22.394554 56.237744 -17.473088
-20.658793 56.842842 -17.663062
-18.923032 57.447940 -17.853035
-18.046145 59.075112 -17.923342
-16.160620 59.067894 -18.142613
-14.177465 58.949766 -18.375385
-12.544088 59.854169 -18.547647
-10.680124 60.084480 -18.759799
-8.927556 60.640445 -18.952680
-6.944401 60.522318 -19.185452
-4.978183 60.453700 -19.415294
-3.327869 61.308594 -19.590486
-1.344715 61.190466 -19.823257
0.638439 61.072339 -20.056029
2.271817 61.976742 -20.228291
4.254971 61.858615 -20.461063
6.178370 61.915176 -20.683497
7.871503 62.644891 -20.866096
9.578593 61.956795 -21.077855
11.366245 61.435030 -21.295746
13.349400 61.316902 -21.528517
15.332554 61.198775 -21.761289
17.315708 61.080648 -21.994061
19.298863 60.962521 -22.226833
21.282017 60.844394 -22.459605
22.793605 59.752660 -22.656482
24.776759 59.634533 -22.889254
26.759308 59.515155 -23.121980
28.271502 58.424672 -23.318903
30.254656 58.306545 -23.551675
32.041616 57.783351 -23.769513
33.749398 57.096684 -23.981324
35.340856 56.169851 -24.184281
37.244140 55.886823 -24.410973
38.755728 54.795089 -24.607850
40.738883 54.676962 -24.840622
42.272784 53.631297 -25.039198
43.762059 52.493495 -25.234377
45.572024 52.017798 -25.453966
46.888197 50.522604 -25.635968
48.537817 49.715855 -25.843352
50.187437 48.909105 -26.050736
51.503609 47.413912 -26.232739
53.303153 46.916699 -26.451535
54.083953 45.549844 -26.568825
55.745552 44.767826 -26.777121
56.664298 43.685777 -26.904911
57.980470 42.190583 -27.086914
59.480363 41.331647 -27.277910
60.227367 39.638072 -27.397619
61.876987 38.831322 -27.605002
63.193159 37.336129 -27.787005
64.509332 35.840936 -27.969008
65.825504 34.345742 -28.151010
65.901905 32.418431 -28.197322
67.020057 30.854218 -28.357652
67.691638 29.134355 -28.469105
68.586505 27.492317 -28.604997
69.553702 25.914820 -28.748041
70.411909 24.792896 -28.869570
70.339888 22.813852 -28.899638
71.184970 21.154462 -29.030081
71.534442 19.322329 -29.106280
71.958031 17.516029 -29.190591
71.836226 15.519633 -29.215209
71.888480 13.583906 -29.258879
72.609287 11.881200 -29.375720
71.921480 10.161570 -29.329184
71.399451 8.360878 -29.303488
71.277645 6.364482 -29.328107
71.155839 4.368087 -29.352726
70.750324 2.510421 -29.341678
69.946003 0.847765 -29.280494
69.139910 -0.814024 -29.219088
68.736167 -2.672557 -29.208263
67.529496 -4.138469 -29.096498
66.560106 -5.720409 -29.014563
65.472076 -7.244335 -28.917713
64.430651 -8.791051 -28.826721
63.625443 -10.453273 -28.765426
62.207984 -11.816113 -28.627162
61.331805 -13.443632 -28.556945
59.775118 -14.572232 -28.397950
58.107613 -15.376867 -28.219785
57.302406 -17.039089 -28.158490
55.805539 -18.342565 -28.009844
54.078214 -18.972324 -27.821330
52.589782 -20.300460 -27.674143
50.905406 -21.055773 -27.493059
49.365590 -22.233695 -27.336983
47.877159 -23.561831 -27.189797
46.005273 -23.768982 -26.976274
44.405638 -24.772028 -26.809849
42.738517 -25.577788 -26.631750
41.105139 -26.482191 -26.459489
39.445685 -27.310360 -26.282716
37.488607 -27.268466 -26.054455
35.855230 -28.172869 -25.882193
34.221852 -29.077272 -25.709932
32.502642 -29.730754 -25.522821
30.605320 -29.863548 -25.304898
28.783791 -30.217913 -25.100087
26.988788 -30.649823 -24.899865
25.005634 -30.531696 -24.667093
23.329179 -31.310170 -24.487379
21.389102 -31.317972 -24.262059
19.610328 -31.797328 -24.064644
17.772570 -32.104248 -23.857026
15.789415 -31.986120 -23.624254
13.806261 -31.867993 -23.391482
12.172627 -32.771646 -23.219176
10.189729 -32.654269 -22.986448
8.206575 -32.536142 -22.753676
6.223420 -32.418015 -22.520905
8.660862 -31.441778 -23.782333
7.010277 -30.569035 -23.573556
5.024681 -30.725360 -23.345831
3.039086 -30.881685 -23.118105
1.053490 -31.038009 -22.890380
-0.932106 -31.194334 -22.662655
-2.582690 -30.321591 -22.453877
-4.568286 -30.477916 -22.226152
-6.267412 -29.754278 -22.014629
-8.204466 -29.761497 -21.789649
-9.855051 -28.888754 -21.580872
-11.840647 -29.045078 -21.353147
-13.494660 -28.182867 -21.144175
-15.242250 -27.608099 -20.929911
-17.127411 -27.455916 -20.707866
-18.777996 -26.583173 -20.499088
-20.485019 -25.883795 -20.287118
-22.414176 -25.866754 -20.062585
-24.064761 -24.994011 -19.853808
-25.964677 -24.887152 -19.630928
-27.475379 -23.584723 -19.430062
-29.016514 -22.375781 -19.227474
-30.733669 -21.707526 -19.014931
-32.317683 -20.630294 -18.809919
-34.015722 -20.448936 -18.609054
-35.061228 -18.908475 -18.457628
-36.689237 -17.966385 -18.250127
-38.319519 -17.031277 -18.042498
-39.830220 -15.728848 -17.841632
-41.340921 -14.426419 -17.640765
-42.551126 -12.970231 -17.471835
-43.691938 -11.498853 -17.310675
-45.431591 -10.899707 -17.096860
-46.796788 -9.522826 -16.911458
-47.096350 -7.600677 -16.839311
-48.057796 -6.017204 -16.696819
-49.534239 -4.939963 -16.504308
-50.234015 -3.586329 -16.396691
-51.341077 -2.077364 -16.238723
-52.173456 -0.427849 -16.109948
-52.605174 1.426677 -16.023756
-53.159893 3.218267 -15.924491
-53.866182 4.932299 -15.809117
-54.017041 6.930537 -15.752774
-54.167899 8.928775 -15.696431
-55.132765 10.510498 -15.553576
-55.428907 12.434397 -15.481793
-55.005273 14.244313 -15.495873
-54.708991 16.095976 -15.494343
-54.859849 18.094213 -15.438000
-54.725224 19.998868 -15.416653
-54.139933 21.755792 -15.450551
-53.575320 23.519495 -15.481914
-53.420017 25.417371 -15.463101
-52.549243 27.080713 -15.531995
-51.850463 28.800435 -15.579804
-50.807694 30.407395 -15.669781
-49.978156 32.084254 -15.733620
-49.066145 33.734077 -15.807568
-48.105849 35.368073 -15.887435
-47.324596 37.060760 -15.945355
-45.890230 37.969910 -16.094396
-45.208974 39.519051 -16.143482
-43.674612 40.571746 -16.301356
-42.377257 42.095252 -16.422541
-41.079902 43.618758 -16.543727
-39.694164 44.966694 -16.678594
-38.141880 45.983787 -16.839242
-36.694002 47.208280 -16.983729
-35.193921 48.329074 -17.136296
-33.563193 49.190340 -17.309088
-32.193758 50.570661 -17.441431
-30.625171 51.555369 -17.604604
-28.984505 52.396892 -17.778934
-27.343839 53.238416 -17.953264
-25.707919 54.089366 -18.126859
-24.207838 55.210159 -18.279426
-22.707756 56.330953 -18.431994
-20.722161 56.487277 -18.659719
-19.140509 57.446033 -18.824914
-17.236484 57.764396 -19.040012
-15.736402 58.885189 -19.192579
-13.750807 59.041514 -19.420304
-11.891224 59.448162 -19.628522
-10.265130 60.318632 -19.800597
-8.279534 60.474957 -20.028322
-6.293938 60.631282 -20.256047
-4.793857 61.752075 -20.408614
-2.808261 61.908400 -20.636339
-0.822666 62.064725 -20.864065
1.162930 62.221049 -21.091790
3.148526 62.377374 -21.319515
5.134122 62.533699 -21.547240
7.119718 62.690024 -21.774965
9.105313 62.846349 -22.002690
11.090909 63.002673 -22.230415
13.076505 63.158998 -22.458140
14.918866 62.875342 -22.677764
16.712685 62.442580 -22.894643
18.698281 62.598904 -23.122368
20.398524 61.878699 -23.333955
22.334461 61.882486 -23.558871
24.320057 62.038810 -23.786596
26.115071 61.609717 -24.003542
27.862661 61.034949 -24.217807
29.606822 60.449648 -24.431877
31.357840 59.885413 -24.646335
33.243002 59.733230 -24.868380
34.893586 58.860486 -25.077157
36.600610 58.161109 -25.289127
38.348199 57.586341 -25.503391
39.858901 56.283911 -25.704258
41.830936 56.398581 -25.931216
42.945080 55.531546 -26.077539
44.551905 54.607416 -26.282229
46.202490 53.734672 -26.491007
47.918528 53.062985 -26.703487
49.666118 52.488217 -26.917751
51.176819 51.185788 -27.118617
52.307532 50.295375 -27.267320
53.756788 48.961505 -27.461656
55.443043 48.355353 -27.669401
56.336757 46.737222 -27.804695
57.847458 45.434793 -28.005561
59.358159 44.132364 -28.206427
60.868860 42.829935 -28.407294
62.379561 41.527506 -28.608160
63.211940 39.877991 -28.736935
64.173387 38.294517 -28.879427
65.555020 36.926047 -29.066576
66.393687 35.279749 -29.196019
67.219779 33.627017 -29.324125
68.613988 32.264980 -29.512611
68.764846 30.266743 -29.568953
69.716916 28.678472 -29.710449
70.025854 26.761121 -29.783592
70.176712 24.762883 -29.839935
70.327571 22.764645 -29.896278
70.478429 20.766408 -29.952621
70.629287 18.768170 -30.008964
70.780145 16.769932 -30.065306
70.931003 14.771695 -30.121649
71.081862 12.773457 -30.177992
70.211087 11.110116 -30.109099
70.073055 9.206578 -30.130028
68.775699 7.683072 -30.008843
68.620397 5.785195 -30.027655
67.749622 4.121854 -29.958762
67.050843 2.402132 -29.910952
66.475891 0.641819 -29.878322
65.900939 -1.118495 -29.845692
64.603584 -2.642000 -29.724506
63.395751 -4.194852 -29.614295
62.731276 -5.925819 -29.570690
61.090610 -6.767343 -29.396360
59.793255 -8.290849 -29.275175
58.909273 -9.437278 -29.194707
57.577637 -10.892685 -29.068215
56.280281 -12.416191 -28.947029
54.639615 -13.257715 -28.772699
53.342260 -14.781220 -28.651514
51.701594 -15.622744 -28.477184
50.394300 -17.126507 -28.354460
48.763573 -17.987773 -28.181668
47.466217 -19.511279 -28.060483
45.894057 -20.488887 -27.896757
43.908461 -20.645212 -27.669032
42.408380 -21.766006 -27.516465
40.903553 -22.877372 -27.363163
38.922703 -23.043124 -27.136172
37.422622 -24.163917 -26.983605
35.922540 -25.284711 -26.831037
33.936945 -25.441036 -26.603312
32.356912 -26.403007 -26.438368
31.516982 -27.636944 -26.364719
29.531386 -27.793268 -26.136994
27.545790 -27.949593 -25.909269
25.560194 -28.105918 -25.681544
24.060113 -29.226711 -25.528977
22.074517 -29.383036 -25.301251
20.088922 -29.539361 -25.073526
18.103326 -29.695686 -24.845801
16.253458 -30.121632 -24.639087
14.617649 -30.972804 -24.465509
12.632053 -31.129129 -24.237784
10.646457 -31.285454 -24.010058
-7.800821 -40.549807 75.765225
-9.375437 -39.516213 75.784210
-11.385446 -39.473195 75.775504
-13.395455 -39.430177 75.766798
-15.212203 -38.947464 75.770384
-16.980080 -38.353566 75.777078
-18.610025 -37.445850 75.792544
-20.564706 -37.276954 75.787357
-22.139322 -36.243361 75.806342
-24.014626 -35.893872 75.806203
-25.723947 -35.166749 75.816621
-27.412448 -34.392259 75.828363
-28.873180 -33.099563 75.854591
-30.502401 -32.190202 75.870104
-32.201312 -31.439396 75.881184
-33.592354 -29.988146 75.911844
-34.983395 -28.536897 75.942505
-36.374437 -27.085648 75.973165
-37.499953 -26.111649 75.992805
-38.751220 -24.605993 76.025553
-40.142261 -23.154743 76.056213
-41.405918 -21.653910 76.088775
-41.498004 -19.697047 76.138828
-42.328936 -18.027777 76.177851
-43.294732 -16.411002 76.214860
-43.251954 -14.401644 76.266926
-43.209175 -12.392286 76.318992
-43.461021 -10.497609 76.366660
-44.132193 -8.766153 76.408068
-43.374776 -7.070774 76.455521
-43.055687 -5.182814 76.505803
-42.021961 -3.608833 76.551473
-41.822981 -1.668102 76.602531
-40.945455 -0.025494 76.649209
-40.321313 1.728440 76.697522
-38.878001 3.122468 76.740548
-37.841162 4.104147 76.770946
-36.389622 5.494560 76.813919
-34.938082 6.884972 76.856891
-33.486542 8.275385 76.899863
-32.035002 9.665798 76.942836
-30.534802 10.931314 76.982823
-28.854144 11.733646 77.011737
-27.124826 12.411082 77.037665
-25.395508 13.088518 77.063594
-23.673277 13.784144 77.089957
-22.056105 14.749427 77.122767
-20.207555 15.120827 77.141379
-18.428925 15.671692 77.164282
-16.748919 16.475699 77.193236
-14.801744 16.593957 77.205798
-13.012506 17.117595 77.228050
-11.174563 17.516222 77.247313
-9.164554 17.473203 77.256019
-7.154546 17.430185 77.264725
-5.144537 17.387167 77.273431
-3.134528 17.344149 77.282137
-1.124519 17.301131 77.290842
0.885490 17.258113 77.299548
2.895499 17.215095 77.308254
4.905508 17.172077 77.316960
6.766064 16.789034 77.316161
8.490133 16.095465 77.306681
10.471755 15.987863 77.313581
12.074758 15.018854 77.296401
14.084767 14.975836 77.305107
15.876357 14.435885 77.299922
17.575268 13.685078 77.288842
19.244009 12.865631 77.275843
20.818625 11.832038 77.256858
22.364131 10.732215 77.236021
23.967858 9.764851 77.218888
25.542474 8.731258 77.199903
26.439825 7.501753 77.172554
28.106060 6.676605 77.159396
29.192689 5.749092 77.140765
30.515518 4.271291 77.109086
32.145321 3.493585 77.096975
32.892300 1.791636 77.056699
34.076914 0.260036 77.022957
34.961213 -1.388461 76.984731
35.639085 -3.117309 76.943423
36.316956 -4.846157 76.902116
37.707998 -6.297407 76.871455
37.897322 -8.216420 76.822854
37.854543 -10.225779 76.770788
37.811764 -12.235137 76.718722
37.768986 -14.244495 76.666655
37.726207 -16.253854 76.614589
36.692480 -17.827835 76.568919
36.415840 -19.734445 76.518363
35.615975 -21.411174 76.471184
34.914172 -23.130987 76.423372
33.548521 -24.559135 76.379845
32.711798 -26.219671 76.332903
31.758371 -27.397941 76.297839
30.231647 -28.595378 76.259479
28.780107 -29.985790 76.216507
27.401403 -31.408204 76.173064
26.268167 -32.279908 76.145033
24.570637 -33.038934 76.117154
23.119097 -34.429346 76.074182
21.416652 -35.175756 76.046604
19.799480 -36.141039 76.013795
17.931144 -36.461654 75.996396
17.150783 -38.084139 75.950712
15.140774 -38.041121 75.942006
13.443897 -38.801821 75.914087
11.513594 -38.963386 75.900491
9.503585 -38.920368 75.891785
7.886413 -39.885650 75.858976
5.876404 -39.842632 75.850270
3.866395 -39.799614 75.841564
1.956879 -40.014532 75.826692
0.239215 -40.721879 75.800048
-1.770794 -40.678861 75.791343
-3.780803 -40.635843 75.782637
-5.790812 -40.592825 75.773931
-7.251249 -41.190835 74.492506
-8.893336 -40.264574 74.508392
-10.903779 -40.355712 74.496221
-12.751842 -39.998356 74.496419
-14.556309 -39.520589 74.499937
-16.566752 -39.611727 74.487766
-18.252434 -38.805878 74.500331
-20.219282 -38.776605 74.491482
-21.861369 -37.850344 74.507367
-23.503456 -36.924083 74.523253
-25.513899 -37.015221 74.511082
-27.246444 -36.338807 74.520078
-28.732686 -34.982102 74.547834
-30.218928 -33.625396 74.575589
-31.965637 -32.988100 74.583506
-33.451878 -31.631395 74.611262
-34.752004 -30.784994 74.626757
-35.991765 -29.312877 74.658694
-37.478007 -27.956172 74.686450
-38.946826 -26.591308 74.714501
-39.757427 -24.918245 74.753721
-41.089947 -23.489561 74.784085
-42.036847 -21.880317 74.820992
-42.830025 -20.199096 74.860507
-43.324489 -18.378005 74.905091
-43.415909 -16.368196 74.956513
-44.487470 -14.817322 74.991305
-44.539721 -12.821690 75.042553
-43.652539 -11.166070 75.089614
-43.743959 -9.156261 75.141036
-43.835380 -7.146452 75.192459
-42.909029 -5.505008 75.239345
-42.072992 -3.830877 75.286634
-42.074098 -1.853756 75.337654
-40.798431 -0.338742 75.382983
-39.441477 1.146852 75.427950
-38.582732 2.420344 75.465010
-37.122535 3.685632 75.504795
-36.397962 5.400105 75.552581
-34.803593 6.224411 75.581641
-33.422167 7.657785 75.625380
-31.764978 8.502717 75.655279
-30.904869 9.773300 75.692270
-29.353633 10.844322 75.727487
-27.764374 11.834208 75.760795
-26.082712 12.626920 75.789466
-24.240717 13.077502 75.810090
-22.394681 13.519462 75.830511
-20.713019 14.312173 75.859182
-19.127801 15.310682 75.892693
-17.117359 15.401820 75.904863
-15.566122 16.472842 75.940080
-13.555679 16.563980 75.952250
-11.545236 16.655118 75.964420
-9.534794 16.746255 75.976591
-7.524351 16.837393 75.988761
-5.636187 17.189457 76.007068
-3.962671 17.999553 76.036148
-1.952229 18.090691 76.048318
-0.202253 17.462419 76.040650
1.700301 17.255568 76.044602
3.710744 17.346706 76.056773
5.352831 16.420445 76.040887
7.363274 16.511583 76.053057
9.373717 16.602721 76.065228
11.059400 15.796871 76.052663
12.657891 14.750200 76.033457
14.552817 14.522279 76.036828
16.310421 13.915077 76.029741
18.046234 13.247688 76.020994
19.792943 12.610392 76.013077
21.539651 11.973096 76.005160
23.025893 10.616390 75.977405
24.520857 9.283774 75.950313
26.258844 8.622389 75.941732
27.745085 7.265683 75.913976
29.231327 5.908978 75.886221
30.717569 4.552273 75.858465
32.362937 3.635073 75.842830
32.825352 2.031429 75.803701
34.050634 0.552533 75.771518
34.968473 -1.070318 75.734118
35.636990 -2.809911 75.692487
36.430169 -4.491132 75.652972
37.203014 -6.181875 75.613112
37.294435 -8.191684 75.561689
37.385855 -10.201493 75.510266
37.477276 -12.211302 75.458844
37.568696 -14.221111 75.407421
36.874192 -15.946467 75.359502
36.733766 -17.872363 75.309113
35.807415 -19.513807 75.262226
34.962350 -21.184671 75.214978
33.954712 -22.796694 75.168454
32.968116 -24.416332 75.121836
31.611162 -25.901926 75.076869
30.254208 -27.387520 75.031903
29.231537 -28.994102 74.985446
27.935266 -29.926300 74.955057
26.253605 -30.719011 74.926386
25.381493 -32.380086 74.879258
23.711834 -32.782307 74.860724
22.253001 -34.050503 74.820870
20.609362 -34.924349 74.790291
18.889678 -35.635926 74.763528
17.047682 -36.086508 74.742904
15.526354 -37.221350 74.706187
13.945209 -38.228551 74.672471
12.163031 -38.806773 74.648845
10.383530 -39.390710 74.625085
8.373087 -39.481848 74.612914
6.362644 -39.572986 74.600744
4.786969 -40.591856 74.566754
2.800965 -40.735145 74.553357
0.790522 -40.826283 74.541187
-1.219920 -40.917421 74.529017
-3.230363 -41.008559 74.516847
-5.240806 -41.099697 74.504676
3.445473 -35.714683 -11.435861
1.865069 -34.723973 -11.220112
-0.124147 -34.735231 -10.981836
-2.113363 -34.746488 -10.743561
-3.929234 -34.332891 -10.514837
-5.682982 -33.767037 -10.289536
-7.672198 -33.778294 -10.051261
-9.315726 -32.942298 -9.832033
-11.241818 -32.798842 -9.597236
-13.003079 -32.251402 -9.371521
-14.702219 -31.551705 -9.149229
-16.391841 -30.828681 -8.927461
-18.100498 -30.152311 -8.704645
-19.961460 -29.849229 -8.473436
-21.498777 -28.752918 -8.260060
-23.122267 -27.867810 -8.041937
-24.702670 -26.877101 -7.826187
-26.364028 -26.555592 -7.618430
-27.304903 -24.948872 -7.463086
-29.004042 -24.249175 -7.240794
-30.703182 -23.549478 -7.018502
-32.402321 -22.849782 -6.796210
-33.812387 -21.441587 -6.589846
-35.511526 -20.741890 -6.367554
-36.921592 -19.333696 -6.161190
-38.298618 -18.497705 -5.973925
-39.329439 -16.929044 -5.808800
-40.739504 -15.520849 -5.602436
-42.149570 -14.112655 -5.396072
-43.277637 -12.585141 -5.220373
-44.268342 -10.999505 -5.059611
-45.269774 -10.004592 -4.913188
-46.266562 -8.421530 -4.751764
-47.263349 -6.838468 -4.590340
-48.093604 -5.184942 -4.447025
-49.503670 -3.776748 -4.240661
-50.253712 -2.089282 -4.106068
-50.258629 -0.086537 -4.052501
-50.263547 1.916208 -3.998933
-50.268465 3.918954 -3.945366
-51.265252 5.502016 -3.783942
-51.270170 7.504761 -3.730375
-51.275087 9.507506 -3.676807
-51.280005 11.510251 -3.623240
-51.284923 13.512996 -3.569673
-51.289840 15.515742 -3.516105
-50.300855 17.110042 -3.592544
-50.305772 19.112787 -3.538977
-50.202285 21.070983 -3.499589
-49.321704 22.709832 -3.561849
-48.332719 24.304132 -3.638288
-47.398544 25.920957 -3.707557
-46.354747 27.492732 -3.791166
-45.997914 29.346816 -3.784917
-44.594803 30.770931 -3.915525
-43.191692 32.195046 -4.046134
-42.398805 33.869932 -4.096922
-41.409819 35.464233 -4.173361
-40.095406 36.339813 -4.307842
-39.380388 38.017302 -4.349222
-37.406889 38.066446 -4.584611
-36.003778 39.490561 -4.715219
-35.466674 41.270562 -4.732550
-34.241650 42.044997 -4.858985
-32.614946 42.930122 -5.030668
-30.919290 43.649031 -5.215016
-29.223634 44.367940 -5.399365
-27.820523 45.792055 -5.529973
-26.124867 46.510964 -5.714322
-24.721756 47.935079 -5.844930
-22.799468 48.107672 -6.070911
-21.037898 48.667691 -6.267368
-19.342242 49.386600 -6.451716
-17.659263 50.136069 -6.633736
-16.083769 51.144638 -6.796011
-14.255274 51.543327 -7.004762
-12.519059 52.164465 -7.196561
-10.863961 52.981145 -7.373459
-9.168305 53.700054 -7.557808
-7.378854 54.192862 -7.759387
-5.389638 54.204119 -7.997662
-3.400422 54.215377 -8.235937
-1.800589 55.165277 -8.402683
0.164288 55.235204 -8.636488
2.153504 55.246462 -8.874763
4.142720 55.257719 -9.113039
6.131936 55.268977 -9.351314
7.707431 56.277546 -9.513589
9.696647 56.288804 -9.751864
11.685863 56.300061 -9.990140
13.521773 55.935580 -10.219968
15.255482 55.320610 -10.444165
17.244698 55.331867 -10.682440
19.233914 55.343125 -10.920715
21.223130 55.354382 -11.158991
22.884693 54.562588 -11.379212
24.792750 54.374930 -11.613016
26.781966 54.386188 -11.851291
28.560260 53.880493 -12.077945
30.351585 53.406736 -12.305316
32.247613 53.189597 -12.538457
33.921204 52.427284 -12.759341
35.501608 51.436575 -12.975091
37.490824 51.447832 -13.213366
39.333245 51.099308 -13.443553
40.743310 49.691113 -13.649917
42.442450 48.991416 -13.872209
44.141589 48.291719 -14.094501
45.801654 47.496252 -14.314640
47.539868 46.892326 -14.539085
48.962461 45.514834 -14.746139
50.649073 44.784435 -14.967741
52.123268 43.533415 -15.177639
53.758278 42.676543 -15.396397
55.284075 41.551996 -15.609138
56.867483 40.568652 -15.825053
58.277549 39.160458 -16.031417
59.687614 37.752263 -16.237781
61.097679 36.344069 -16.444145
62.777279 35.596482 -16.665361
63.841014 34.081369 -16.833016
64.915592 32.531222 -17.002899
65.834589 30.915245 -17.155864
67.034365 29.418072 -17.339361
67.828164 27.749121 -17.478712
68.824951 26.166059 -17.640136
69.861845 24.599967 -17.805921
70.818526 22.999935 -17.962983
71.279260 21.190057 -18.066116
71.820231 19.414128 -18.177975
71.825149 17.411383 -18.231542
72.704025 15.778430 -18.380144
72.826854 13.825576 -18.446533
72.831771 11.822831 -18.500101
72.836689 9.820085 -18.553668
72.841607 7.817340 -18.607235
72.846524 5.814595 -18.660803
72.851442 3.811850 -18.714370
72.254658 2.056374 -18.689233
71.867374 0.214804 -18.691498
70.878388 -1.379496 -18.615059
70.856509 -3.371229 -18.665122
69.453398 -4.795344 -18.534513
68.753083 -6.508273 -18.495833
67.349972 -7.932388 -18.365225
66.649657 -9.645317 -18.326545
65.938378 -11.353741 -18.286431
64.546231 -12.782362 -18.157257
63.845916 -14.495291 -18.118577
62.442805 -15.919406 -17.987969
61.039694 -17.343521 -17.857361
59.344038 -18.062430 -17.673012
58.491622 -19.408707 -17.606392
56.948067 -20.494269 -17.449984
55.340633 -21.425846 -17.281842
53.849300 -22.637293 -17.135027
52.189644 -23.442985 -16.957292
50.614150 -24.451554 -16.795017
49.054877 -25.499226 -16.635721
47.463161 -26.468693 -16.470467
45.887667 -27.477263 -16.308192
44.260453 -28.361158 -16.136416
42.564797 -29.080067 -15.952067
40.747462 -29.505660 -15.745366
39.171968 -30.514229 -15.583091
37.477829 -31.236794 -15.399021
35.782172 -31.955703 -15.214673
34.031763 -32.542626 -15.020266
32.042547 -32.553883 -14.781991
30.402658 -33.407224 -14.607886
28.477837 -33.573710 -14.381440
26.718801 -34.139836 -14.185449
24.913127 -34.593538 -13.980890
22.923911 -34.604795 -13.742615
20.934695 -34.616053 -13.504339
19.351085 -35.605060 -13.340574
17.369984 -35.635880 -13.103789
15.380768 -35.647137 -12.865514
13.391552 -35.658395 -12.627238
11.402337 -35.669652 -12.388963
9.413121 -35.680910 -12.150688
7.423905 -35.692168 -11.912412
5.434689 -35.703425 -11.674137
2.260995 -35.716879 -10.032972
0.711409 -34.669086 -9.819408
-1.282598 -34.607865 -9.578641
-3.083636 -34.118270 -9.349685
-4.826191 -33.498850 -9.124310
-6.820198 -33.437628 -8.883543
-8.428266 -32.519661 -8.666399
-10.363791 -32.328613 -8.429212
-11.913376 -31.280821 -8.215648
-13.907384 -31.219599 -7.974881
-15.456969 -30.171806 -7.761318
-17.440735 -30.087850 -7.521177
-19.000562 -29.062791 -7.306987
-20.550147 -28.014999 -7.093423
-22.156858 -27.094019 -6.876363
-23.833651 -26.328612 -6.655013
-25.643326 -25.858191 -6.425529
-27.187235 -24.797799 -6.212313
-28.549774 -23.334781 -6.010199
-30.226566 -22.569374 -5.788849
-31.589105 -21.106357 -5.586734
-33.265897 -20.340950 -5.365384
-34.628436 -18.877933 -5.163270
-36.305228 -18.112526 -4.941920
-37.667767 -16.649508 -4.739806
-39.030305 -15.186491 -4.537692
-39.709318 -13.463006 -4.410665
-41.043922 -11.989343 -4.211620
-42.406461 -10.526325 -4.009506
-43.768999 -9.063308 -3.807391
-45.131538 -7.600290 -3.605277
-45.410827 -5.724484 -3.522162
-46.433694 -4.132030 -3.357361
-48.020293 -3.166403 -3.141532
-48.247595 -1.436637 -3.068514
-48.701182 0.372750 -2.966252
-49.119579 2.195546 -2.867854
-49.052492 4.203344 -2.822789
-49.231496 6.117365 -2.750690
-49.924476 7.835528 -2.622129
-49.857389 9.843325 -2.577064
-49.790303 11.851123 -2.531998
-49.723216 13.858920 -2.486933
-49.656129 15.866718 -2.441868
-49.589043 17.874515 -2.396802
-48.543457 19.437967 -2.480846
-48.476370 21.445764 -2.435780
-47.992565 23.264326 -2.445699
-47.363697 25.017013 -2.474758
-46.461545 26.645600 -2.539876
-45.004132 28.022036 -2.678259
-44.226940 29.707368 -2.726888
-43.473111 31.403310 -2.772436
-42.707601 33.093947 -2.819524
-41.250188 34.470383 -2.957906
-40.276876 35.604272 -3.044645
-38.760225 36.821999 -3.194330
-37.302812 38.198435 -3.332712
-35.805453 39.467850 -3.478716
-34.120946 40.235851 -3.660429
-32.898783 41.719117 -3.767771
-31.630983 42.587466 -3.896852
-30.173570 43.963903 -4.035234
-28.449118 44.624881 -4.224569
-26.991704 46.001318 -4.362951
-25.267252 46.662296 -4.552286
-23.809838 48.038733 -4.690668
-21.839527 48.040998 -4.926914
-20.360934 49.360690 -5.069337
-18.606812 49.942176 -5.264333
-16.912029 50.682647 -5.448006
-14.996447 50.831544 -5.673810
-13.196086 51.289145 -5.877628
-12.345024 52.750569 -5.941040
-10.351017 52.689347 -6.181808
-8.447594 52.870822 -6.405291
-6.740652 53.578714 -6.591284
-4.998690 54.192779 -6.783960
-3.130287 54.468081 -7.000761
-1.282747 54.799278 -7.213582
0.480078 55.357448 -7.410238
2.474085 55.296226 -7.651005
4.468092 55.235005 -7.891773
6.462100 55.173783 -8.132540
8.456107 55.112561 -8.373307
10.132122 55.903315 -8.553400
12.066472 56.001928 -8.782784
14.060479 55.940706 -9.023551
16.054487 55.879484 -9.264318
18.048494 55.818262 -9.505086
19.783646 55.182407 -9.730008
21.592087 54.709248 -9.959417
23.586094 54.648026 -10.200184
25.442530 54.281409 -10.432530
27.129687 53.539011 -10.654515
29.123694 53.477789 -10.895282
30.787161 52.682800 -11.115816
32.667287 52.368775 -11.349613
34.661294 52.307553 -11.590380
36.210880 51.259760 -11.803943
38.122837 51.016396 -12.039688
39.754473 50.150745 -12.258274
41.304058 49.102953 -12.471838
42.853644 48.055160 -12.685401
44.830006 47.954769 -12.925089
46.397236 46.946145 -13.139732
47.946822 45.898353 -13.353296
49.860383 45.658549 -13.589139
51.222922 44.195531 -13.791253
52.899714 43.430125 -14.012603
54.262253 41.967107 -14.214717
55.939045 41.201700 -14.436067
57.301584 39.738683 -14.638181
58.978376 38.973276 -14.859531
60.340915 37.510259 -15.061646
61.703453 36.047241 -15.263760
63.065992 34.584223 -15.465874
64.428531 33.121206 -15.667988
65.791069 31.658188 -15.870102
67.153608 30.195170 -16.072216
67.981785 28.528526 -16.215629
69.167225 26.998023 -16.398288
70.529763 25.535005 -16.600402
70.798996 23.655367 -16.682414
71.831919 22.066745 -16.848318
72.677137 20.406594 -16.993603
73.134076 18.598485 -17.096234
73.549120 16.774410 -17.194263
73.482034 14.766613 -17.239329
73.664389 12.853869 -17.311796
74.354017 11.134429 -17.439989
74.286930 9.126632 -17.485054
74.219844 7.118834 -17.530119
74.152757 5.111037 -17.575185
74.085670 3.103239 -17.620250
73.040084 1.539787 -17.536207
72.972998 -0.468010 -17.581272
72.905911 -2.475807 -17.626337
72.418847 -4.292889 -17.615988
70.961433 -5.669326 -17.477606
70.195923 -7.359962 -17.430518
69.430413 -9.050599 -17.383429
68.656481 -10.737412 -17.335229
67.207489 -12.117673 -17.197958
66.441979 -13.808309 -17.150870
64.984565 -15.184746 -17.012488
63.527152 -16.561183 -16.874105
62.069738 -17.937620 -16.735723
60.612325 -19.314057 -16.597341
59.649184 -20.475195 -16.512543
58.122362 -21.665672 -16.360918
56.664949 -23.042109 -16.222536
54.940496 -23.703087 -16.033201
53.483083 -25.079524 -15.894819
51.758631 -25.740502 -15.705484
50.301217 -27.116939 -15.567102
48.712330 -28.141128 -15.403634
46.852313 -28.438896 -15.188433
45.127860 -29.099874 -14.999098
43.485608 -29.981085 -14.825448
41.869250 -30.931673 -14.656738
40.221542 -31.798268 -14.482047
38.258885 -31.821041 -14.247261
36.505599 -32.404767 -14.052425
34.781147 -33.065745 -13.863090
33.032163 -33.660997 -13.669075
31.332242 -34.387702 -13.484421
29.421798 -34.550364 -13.259598
27.427790 -34.489142 -13.018831
25.811433 -35.439731 -12.850121
23.817426 -35.378509 -12.609354
21.908865 -35.546219 -12.384890
20.207061 -36.267876 -12.199877
18.213053 -36.206654 -11.959110
16.219046 -36.145432 -11.718342
14.225039 -36.084210 -11.477575
12.231031 -36.022989 -11.236808
10.237024 -35.961767 -10.996041
8.243017 -35.900545 -10.755273
6.249009 -35.839323 -10.514506
4.255002 -35.778101 -10.273739
