ply
format ascii 1.0
element vertex 1008
property float x
property float y
property float z
end_header
11.964113 -40.591816 1.309095
10.289094 -39.762697 1.531958
8.614075 -38.933577 1.754821
6.672293 -38.996214 1.980357
4.953830 -38.312322 2.203656
2.968605 -38.520186 2.429627
1.161124 -38.133870 2.653818
-0.383467 -36.868744 2.875373
-2.366659 -37.069812 3.101325
-4.041678 -36.240692 3.324188
-5.716697 -35.411573 3.547050
-7.439227 -34.741275 3.770389
-9.203167 -34.209407 3.994143
-10.747758 -32.944282 4.215699
-12.416774 -32.095095 4.438502
-14.275638 -31.880547 4.663207
-15.925256 -31.286491 4.875558
-16.914408 -29.719214 5.041712
-18.458999 -28.454089 5.263267
-20.003590 -27.188963 5.484823
-21.399731 -26.457019 5.671891
-22.673894 -25.133046 5.863644
-23.736539 -24.131423 6.020276
-25.281130 -22.866297 6.241832
-26.155960 -21.236831 6.396582
-27.700551 -19.971706 6.618138
-28.575381 -18.342240 6.772889
-30.119972 -17.077115 6.994444
-30.512386 -15.185222 7.101076
-30.711542 -13.188200 7.188432
-31.404939 -11.460038 7.325085
-32.279769 -9.830573 7.479836
-33.203380 -8.227643 7.639452
-33.402536 -6.230621 7.726807
-33.601692 -4.233599 7.814163
-33.800848 -2.236577 7.901518
-33.299477 -0.449379 7.900057
-33.169845 1.449163 7.945727
-33.369001 3.446185 8.033083
-33.149832 5.317909 8.067401
-32.614726 7.095003 8.061663
-31.907837 8.820644 8.034145
-31.544515 10.649191 8.050187
-30.281573 12.208281 7.952171
-29.417358 13.886798 7.904707
-28.483526 15.544464 7.848416
-27.757038 17.264235 7.818414
-26.566225 18.657553 7.723536
-25.062981 19.767094 7.582949
-24.527876 21.544188 7.577211
-23.223401 23.025579 7.471837
-21.642437 23.989724 7.317481
-20.848828 25.283217 7.265949
-19.125280 25.980621 7.086334
-17.862339 27.539711 6.988318
-16.418613 28.760595 6.858275
-14.941874 29.919721 6.722383
-13.354404 30.871693 6.566875
-11.731907 31.758140 6.405162
-10.109411 32.644586 6.243449
-8.526434 33.604964 6.088737
-6.864418 34.417479 5.920024
-5.064470 34.971954 5.726874
-3.587731 36.131081 5.590983
-1.637373 36.404174 5.371188
-0.125767 37.498071 5.229120
1.859458 37.705935 5.003148
3.589671 38.390869 4.822353
5.321422 39.072926 4.641285
7.306647 39.280790 4.415314
8.816715 40.377564 4.273518
10.768611 40.647780 4.053451
12.753837 40.855644 3.827479
14.739062 41.063509 3.601507
16.724288 41.271373 3.375535
18.709513 41.479237 3.149564
20.694739 41.687101 2.923592
22.467393 41.184364 2.699751
24.354983 41.065846 2.474757
26.340209 41.273710 2.248786
28.325434 41.481575 2.022814
30.000454 40.652455 1.799951
31.985679 40.860320 1.573980
33.970905 41.068184 1.348008
35.692369 40.394326 1.124680
37.456309 39.862458 0.900926
39.306168 39.617809 0.676310
41.203538 39.531982 0.451219
42.966413 38.996554 0.227476
44.641432 38.167434 0.004613
46.626658 38.375299 -0.221359
47.589537 37.040172 -0.376992
49.353477 36.508305 -0.600746
51.072811 35.827326 -0.824053
52.747831 34.998206 -1.046915
54.425948 34.179444 -1.269809
55.970539 32.914319 -1.491365
57.734479 32.382451 -1.715119
59.447907 31.681728 -1.938367
60.373249 30.221118 -2.093623
61.917840 28.955993 -2.315179
63.462431 27.690867 -2.536735
65.226371 27.159000 -2.760489
66.273468 25.623245 -2.932422
67.419810 24.141478 -3.114255
68.520622 22.634943 -3.291546
69.395452 21.005478 -3.446296
70.858833 19.696175 -3.659752
71.145112 17.746546 -3.755797
72.204331 16.217386 -3.928939
73.350672 14.735618 -4.110772
73.549828 12.738596 -4.198127
73.974670 10.864344 -4.307994
74.895325 9.259807 -4.467315
75.094481 7.262784 -4.554670
75.293637 5.265762 -4.642026
75.492793 3.268740 -4.729381
75.691949 1.271718 -4.816736
75.180939 -0.512593 -4.814054
75.060945 -2.414022 -4.860946
74.230786 -4.102740 -4.817799
74.303458 -6.061877 -4.889118
73.040516 -7.620967 -4.791102
72.505411 -9.398061 -4.785364
71.939462 -11.165917 -4.775716
70.707363 -12.734245 -4.681610
70.279143 -14.543353 -4.689423
69.277597 -15.615789 -4.606437
68.014655 -17.174879 -4.508421
66.751713 -18.733969 -4.410404
65.488772 -20.293059 -4.312388
64.910546 -21.989484 -4.299011
63.331169 -22.956599 -4.144937
61.708673 -23.843045 -3.983224
60.445731 -25.402135 -3.885208
58.823234 -26.288581 -3.723495
57.200738 -27.175028 -3.561782
55.937796 -28.734118 -3.463765
54.315300 -29.620564 -3.302052
52.692803 -30.507010 -3.140339
51.111413 -31.470358 -2.985909
49.447810 -32.279903 -2.816913
48.157936 -33.788610 -2.714126
46.172711 -33.996474 -2.488154
44.580320 -34.939242 -2.331775
42.710747 -35.363464 -2.126291
40.975772 -36.039491 -1.944652
39.248783 -36.730455 -1.764428
37.263558 -36.938319 -1.538456
35.748728 -38.026186 -1.395817
33.801594 -38.305310 -1.176593
31.816368 -38.513174 -0.950622
29.831143 -38.721038 -0.724650
27.845917 -38.928902 -0.498678
25.860692 -39.136766 -0.272707
23.875466 -39.344631 -0.046735
21.890241 -39.552495 0.179237
19.905015 -39.760359 0.405209
17.919790 -39.968223 0.631180
15.934564 -40.176088 0.857152
13.949339 -40.383952 1.083124
-18.234704 -37.155806 -68.430952
-19.910288 -36.303499 -68.367085
-21.907282 -36.484332 -68.273407
-23.904275 -36.665166 -68.179728
-25.901269 -36.845999 -68.086050
-27.898262 -37.026833 -67.992371
-29.573846 -36.174526 -67.928504
-31.570840 -36.355360 -67.834826
-33.567834 -36.536193 -67.741147
-35.510797 -36.543351 -67.652480
-37.240411 -35.864720 -67.583602
-39.046900 -35.433195 -67.507593
-40.912989 -35.193246 -67.426056
-42.588573 -34.340939 -67.362189
-44.585566 -34.521772 -67.268510
-46.346379 -33.943425 -67.196738
-48.114431 -33.388347 -67.124294
-49.882483 -32.833269 -67.051850
-51.609312 -32.145684 -66.983230
-53.191316 -30.992572 -66.928043
-54.960480 -30.441070 -66.855496
-56.727420 -29.882417 -66.783155
-58.268201 -28.596798 -66.731791
-59.987232 -27.884148 -66.663894
-61.662816 -27.031841 -66.600027
-63.345086 -26.201024 -66.535540
-64.885867 -24.915405 -66.484176
-66.426648 -23.629786 -66.432812
-67.967429 -22.344168 -66.381448
-69.508210 -21.058549 -66.330084
-71.048991 -19.772930 -66.278720
-72.115274 -18.238202 -66.252639
-73.453650 -16.846322 -66.212061
-74.994431 -15.560703 -66.160697
-75.858310 -13.919713 -66.145402
-76.672412 -12.252591 -66.132759
-77.586067 -10.637734 -66.114811
-77.993696 -8.757216 -66.123827
-78.636921 -7.000384 -66.120290
-79.314980 -5.261840 -66.114896
-79.496980 -3.262867 -66.135935
-79.678980 -1.263894 -66.156974
-79.860980 0.735079 -66.178012
-80.042980 2.734053 -66.199051
-80.224979 4.733026 -66.220090
-79.444366 6.431391 -66.280594
-79.556584 8.408573 -66.304494
-79.067618 10.198015 -66.353041
-78.888188 12.084120 -66.388898
-78.037792 13.760694 -66.452263
-78.137490 15.733966 -66.476676
-76.854096 17.275322 -66.557794
-75.570701 18.816678 -66.638911
-75.017321 20.586004 -66.690099
-73.733926 22.127360 -66.771217
-72.450532 23.668717 -66.852334
-71.167137 25.210073 -66.933451
-69.883743 26.751429 -67.014569
-68.600349 28.292785 -67.095686
-67.242891 29.692934 -67.178107
-65.678067 30.697727 -67.264178
-64.254389 31.971624 -67.347765
-62.755785 33.102669 -67.432671
-61.116898 33.966256 -67.520046
-59.478011 34.829842 -67.607420
-57.839123 35.693428 -67.694795
-56.280393 36.709838 -67.780759
-54.786142 37.849183 -67.865588
-52.922461 38.284186 -67.956920
-51.294897 39.169362 -68.044096
-49.800647 40.308707 -68.128925
-47.803653 40.489540 -68.222603
-46.309402 41.628885 -68.307432
-44.312409 41.809719 -68.401111
-42.378152 42.110164 -68.493685
-40.821164 43.129898 -68.579618
-39.326914 44.269243 -68.664447
-37.329920 44.450076 -68.758125
-35.332927 44.630910 -68.851804
-33.335933 44.811744 -68.945482
-31.338939 44.992577 -69.039161
-29.483969 45.444187 -69.130339
-27.847695 46.312756 -69.217668
-25.850701 46.493590 -69.311347
-23.855379 46.669053 -69.404870
-22.178124 45.822116 -69.468892
-20.181130 46.002950 -69.562571
-18.184137 46.183783 -69.656249
-16.187143 46.364617 -69.749928
-14.511559 45.512310 -69.813795
-12.514565 45.693143 -69.907473
-10.569932 45.705672 -69.996295
-8.841988 45.021670 -70.065019
-6.844994 45.202503 -70.158698
-5.169410 44.350196 -70.222565
-3.172417 44.531030 -70.316243
-1.496833 43.678723 -70.380110
0.265651 43.105745 -70.452038
2.175745 43.007249 -70.537656
3.851329 42.154942 -70.601523
5.569807 41.440512 -70.669369
7.523907 41.483468 -70.759069
9.105910 40.330356 -70.814256
10.873962 39.775279 -70.886700
12.414743 38.489660 -70.938064
14.182795 37.934582 -71.010508
15.901827 37.221932 -71.078405
17.491628 36.093885 -71.134316
19.032409 34.808267 -71.185680
20.573190 33.522648 -71.237044
22.113971 32.237029 -71.288408
23.654752 30.951411 -71.339772
24.794015 30.066221 -71.378710
25.933299 28.569818 -71.408680
27.176742 27.198510 -71.445234
28.241711 26.203905 -71.479181
29.298041 24.663952 -71.504731
30.437326 23.167549 -71.534701
31.510249 21.636307 -71.561135
32.715895 20.174744 -71.594641
32.897895 18.175770 -71.573602
33.079894 16.176797 -71.552563
34.219179 14.680395 -71.582534
34.475836 12.720617 -71.565473
35.540463 11.185019 -71.591465
35.722463 9.186046 -71.570426
35.380215 7.350786 -71.527894
35.054067 5.510499 -71.486022
35.236067 3.511526 -71.464983
34.450087 1.814836 -71.404259
34.567671 -0.164021 -71.380579
34.073339 -1.951788 -71.331812
33.519959 -3.721115 -71.280624
32.966578 -5.490441 -71.229436
31.683184 -7.031797 -71.148319
31.129803 -8.801124 -71.097130
29.846409 -10.342480 -71.016013
29.293028 -12.111807 -70.964825
28.009634 -13.653163 -70.883708
26.726239 -15.194519 -70.802590
25.442845 -16.735875 -70.721473
23.803957 -17.599461 -70.634098
22.520563 -19.140817 -70.552981
21.160492 -20.535984 -70.470514
19.598281 -21.545760 -70.384488
18.171990 -22.814674 -70.300856
16.676000 -23.950702 -70.215996
15.183489 -25.093364 -70.131198
13.689238 -26.232709 -70.046369
12.114831 -27.219230 -69.960129
10.197994 -27.552888 -69.867861
8.703743 -28.692233 -69.783032
7.198169 -29.809989 -69.698004
5.212498 -30.012411 -69.604525
3.718248 -31.151756 -69.519696
2.223997 -32.291102 -69.434867
0.227003 -32.471935 -69.341188
-1.351761 -33.450150 -69.254872
-3.264241 -33.792114 -69.162681
-4.985028 -34.499552 -69.073865
-6.755485 -35.112293 -68.984174
-8.752479 -35.293126 -68.890495
-10.749472 -35.473960 -68.796817
-12.746466 -35.654793 -68.703138
-14.743460 -35.835627 -68.609460
-16.240324 -36.969990 -68.524585
-38.012822 -31.764293 -69.080411
-39.496653 -30.609926 -69.029717
-41.491600 -30.408945 -68.941735
-43.267274 -29.798952 -68.869750
-44.970378 -29.053597 -68.803059
-46.965325 -28.852615 -68.715077
-48.521726 -27.833612 -68.659088
-50.152738 -26.953784 -68.597656
-51.783751 -26.073955 -68.536225
-53.411766 -25.188534 -68.475012
-55.406713 -24.987552 -68.387030
-55.944812 -23.213891 -68.388531
-57.792100 -22.737481 -68.311321
-59.275931 -21.583114 -68.260627
-61.199264 -21.248551 -68.177869
-62.468863 -19.694577 -68.142804
-63.738463 -18.140603 -68.107739
-65.722372 -17.919033 -68.020562
-66.268511 -16.160368 -68.021476
-67.596643 -14.715575 -67.982141
-69.169123 -13.726565 -67.924979
-70.564306 -12.406842 -67.880752
-71.337758 -11.072185 -67.865083
-72.607357 -9.518211 -67.830018
-73.843121 -8.519276 -67.788350
-74.044014 -6.643252 -67.806724
-75.313614 -5.089278 -67.771658
-76.408473 -4.047882 -67.737036
-77.244185 -2.363158 -67.723666
-78.019870 -0.660345 -67.713298
-78.557491 1.114207 -67.714834
-78.716146 3.002960 -67.735320
-79.551858 4.687684 -67.721950
-80.170356 6.437864 -67.719442
-80.188108 8.369077 -67.746973
-79.988646 10.365746 -67.785366
-79.789184 12.362416 -67.823758
-79.589723 14.359085 -67.862150
-79.390261 16.355754 -67.900543
-79.190799 18.352424 -67.938935
-78.991337 20.349093 -67.977327
-77.839035 21.833534 -68.051634
-77.639573 23.830203 -68.090027
-77.119135 25.434001 -68.137284
-75.425833 26.233857 -68.226204
-75.193725 28.212976 -68.265827
-74.130509 29.152422 -68.328076
-72.947338 30.599080 -68.403235
-71.693286 32.028823 -68.481377
-70.141605 33.298566 -68.570737
-69.263684 34.930509 -68.634702
-67.506755 35.519254 -68.723424
-66.291203 36.926279 -68.799478
-65.061538 38.369131 -68.876701
-63.509857 39.638874 -68.966061
-61.737313 40.175811 -69.054735
-60.185632 41.445554 -69.144095
-58.413088 41.982490 -69.232768
-56.861407 43.252233 -69.322129
-55.088863 43.789170 -69.410802
-53.316319 44.326106 -69.499476
-51.575379 44.967899 -69.588248
-49.892779 45.803263 -69.677201
-48.210179 46.638626 -69.766154
-46.447007 47.206658 -69.854857
-44.532632 47.273009 -69.943090
-42.537685 47.072027 -70.031072
-40.855085 47.907391 -70.120025
-39.135969 48.621597 -70.208865
-37.177539 48.541774 -70.296960
-35.370019 48.962663 -70.385525
-33.499992 49.176156 -70.473896
-31.505045 48.975175 -70.561878
-29.822445 49.810538 -70.650831
-27.827498 49.609557 -70.738813
-25.832552 49.408575 -70.826795
-23.837605 49.207594 -70.914777
-22.078762 49.789991 -71.003493
-20.160058 49.841976 -71.091713
-18.406805 49.190163 -71.162062
-16.681280 48.486628 -71.230389
-14.686333 48.285647 -71.318371
-12.691386 48.084666 -71.406353
-10.696439 47.883684 -71.494335
-8.701493 47.682703 -71.582317
-7.175075 46.607773 -71.636118
-5.222714 46.327355 -71.720994
-3.227768 46.126373 -71.808976
-1.743936 44.972007 -71.859670
0.251011 44.771025 -71.947652
1.734842 43.616659 -71.998346
3.695242 43.351237 -72.083808
5.213620 42.261310 -72.137023
6.957268 41.591580 -72.206672
8.692398 40.905962 -72.275699
10.219294 39.831923 -72.329535
11.850306 38.952095 -72.390967
13.481319 38.072266 -72.452399
15.112332 37.192437 -72.513830
16.622670 36.087514 -72.566458
18.106502 34.933148 -72.617153
19.643958 33.878807 -72.671759
20.646494 32.809589 -72.701765
21.975720 31.528709 -72.743556
23.443605 30.344597 -72.793087
24.943383 29.219976 -72.844944
25.612239 27.690217 -72.852982
26.881839 26.136243 -72.888048
27.905764 25.073471 -72.919123
29.050474 23.481862 -72.947943
30.320073 21.927889 -72.983009
31.448072 20.331244 -73.010993
31.395317 18.378784 -72.979937
32.664916 16.824810 -73.015002
33.934516 15.270837 -73.050067
33.755745 13.280402 -73.012710
33.556283 11.283733 -72.974317
34.391994 9.599009 -72.987687
34.621046 7.731470 -72.970721
35.028244 5.917616 -72.962664
34.828783 3.920946 -72.924271
34.629321 1.924277 -72.885879
34.429859 -0.072392 -72.847487
34.230397 -2.069061 -72.809094
33.887389 -3.988563 -72.765291
32.878633 -5.550172 -72.696395
32.679171 -7.546841 -72.658003
31.927386 -9.246592 -72.598792
31.049465 -10.878535 -72.534827
30.171544 -12.510478 -72.470862
29.022803 -13.996834 -72.396690
27.741942 -15.412165 -72.317537
26.718198 -16.965716 -72.248076
25.091477 -17.581044 -72.164899
23.539796 -18.850787 -72.075538
22.661875 -20.482730 -72.011574
20.889331 -21.019666 -71.922900
19.975721 -22.533197 -71.859046
18.238866 -23.188546 -71.770262
17.192797 -24.262586 -71.706819
15.367539 -24.624619 -71.618310
13.815857 -25.894362 -71.528950
12.264176 -27.164105 -71.439589
10.462397 -27.604041 -71.351007
8.719089 -28.237977 -71.262242
7.679473 -29.333430 -71.198780
5.847761 -29.674050 -71.110290
4.001927 -29.967813 -71.021845
2.302674 -30.747923 -70.932943
0.750993 -32.017666 -70.843583
-1.045873 -32.473904 -70.754985
-3.040820 -32.272923 -70.667003
-4.787501 -32.895668 -70.578249
-6.718367 -32.907305 -70.490068
-8.713313 -32.706324 -70.402085
-10.395913 -33.541687 -70.313132
-12.390860 -33.340706 -70.225150
-14.091945 -34.114737 -70.136254
-16.068407 -33.975088 -70.048215
-18.063354 -33.774107 -69.960233
-20.058301 -33.573125 -69.872251
-22.053247 -33.372144 -69.784268
-24.048194 -33.171163 -69.696286
-26.043141 -32.970181 -69.608304
-28.038088 -32.769200 -69.520322
-30.033035 -32.568218 -69.432340
-32.027981 -32.367237 -69.344358
-34.022928 -32.166256 -69.256376
-36.017875 -31.965274 -69.168394
15.377216 -41.965134 25.546551
13.738789 -41.067645 25.733274
11.747767 -41.193492 25.914110
9.756745 -41.319338 26.094947
8.118317 -40.421849 26.281670
6.127295 -40.547695 26.462507
4.183799 -40.535607 26.644137
2.497845 -39.776053 26.830067
0.859417 -38.878563 27.016790
-1.038927 -38.735433 27.199174
-2.770032 -38.106921 27.384350
-4.520745 -37.535316 27.569198
-6.261653 -36.935258 27.754210
-8.002562 -36.335200 27.939222
-9.676337 -35.540300 28.125355
-11.235057 -34.411476 28.313409
-12.726644 -33.087810 28.502583
-14.591620 -32.847833 28.685524
-16.208461 -31.887694 28.872608
-17.700048 -30.564028 29.061782
-19.191635 -29.240363 29.250956
-20.683221 -27.916697 29.440131
-22.174808 -26.593031 29.629305
-23.527266 -25.201064 29.808096
-24.472476 -23.609171 29.956496
-25.668344 -22.741541 30.100833
-26.333961 -21.012389 30.228366
-27.140043 -19.352194 30.366383
-27.962445 -17.700012 30.505617
-28.080845 -15.702220 30.592313
-29.168696 -14.180352 30.751358
-29.287096 -12.182560 30.838054
-29.405496 -10.184767 30.924750
-29.523896 -8.186975 31.011446
-29.642296 -6.189183 31.098142
-29.760696 -4.191391 31.184838
-29.879096 -2.193599 31.271534
-28.979080 -0.546084 31.250028
-28.248081 1.159564 31.246480
-28.197464 3.099224 31.315219
-27.297448 4.746739 31.293713
-26.436036 6.407531 31.276308
-25.497416 8.041769 31.250701
-24.507878 9.658493 31.219684
-23.183734 11.160132 31.153116
-21.526679 11.974965 31.029504
-20.202535 13.476605 30.962937
-19.438670 14.896151 30.945490
-17.941466 16.040760 30.849268
-16.617322 17.542399 30.782701
-14.960267 18.357232 30.659089
-13.357809 19.284699 30.544832
-11.646158 19.986898 30.411866
-10.899611 21.442172 30.397386
-9.052178 21.864247 30.241153
-7.388374 22.665156 30.116385
-5.738069 23.493913 29.993930
-4.081014 24.308746 29.870318
-2.356921 24.985276 29.735219
-0.766905 25.938412 29.623095
1.154316 26.208260 29.454218
3.145338 26.334106 29.273381
4.665553 27.431243 29.173217
6.656576 27.557089 28.992380
8.647598 27.682936 28.811544
10.174154 28.766991 28.710293
12.158835 28.905919 28.530542
14.149857 29.031765 28.349706
16.140879 29.157612 28.168869
18.131902 29.283458 27.988032
20.122924 29.409304 27.807195
22.113946 29.535151 27.626358
23.752373 28.637662 27.439635
25.743396 28.763508 27.258799
27.585994 28.458584 27.075484
29.372845 27.991865 26.891239
31.363867 28.117712 26.710402
33.058042 27.382016 26.524610
34.993317 27.346069 26.342842
36.631745 26.448580 26.156119
38.622767 26.574426 25.975282
40.270998 25.705391 25.788723
41.899622 24.779448 25.601836
43.890644 24.905294 25.421000
45.529072 24.007805 25.234277
47.234633 23.305158 25.048674
48.726220 21.981492 24.859500
50.444355 21.315338 24.674108
51.958715 20.057768 24.485314
53.450302 18.734103 24.296139
55.191210 18.134045 24.111127
56.682797 16.810379 23.921953
58.174384 15.486713 23.732778
59.665970 14.163048 23.543604
60.472052 12.502853 23.405588
61.963639 11.179187 23.216413
63.194130 9.727345 23.046724
63.575801 7.858798 22.940380
64.400381 6.207684 22.800984
65.873470 4.874938 22.613190
66.576082 3.163948 22.482895
66.694482 1.166156 22.396199
66.812882 -0.831636 22.309503
66.931282 -2.829429 22.222807
67.049682 -4.827221 22.136110
67.168082 -6.825013 22.049414
67.286482 -8.822805 21.962718
67.280184 -10.777709 21.889271
66.504866 -12.468112 21.897528
65.604850 -14.115628 21.919034
65.468139 -16.025676 21.859442
64.143996 -17.527315 21.926010
63.923218 -19.408450 21.875350
62.895637 -20.942761 21.913034
61.278911 -21.840793 22.029736
60.170130 -23.416505 22.073422
59.017842 -24.404949 22.143404
57.693698 -25.906588 22.209972
56.417043 -27.424561 22.271494
55.432628 -28.470744 22.323641
53.889402 -29.520409 22.427748
52.369187 -30.617546 22.527912
50.794375 -31.602049 22.637432
49.910989 -32.775019 22.675359
47.919967 -32.900865 22.856196
46.543340 -34.294231 22.931756
44.879536 -35.095139 23.056524
43.229231 -35.923897 23.178979
41.572177 -36.738730 23.302591
39.848084 -37.415260 23.437690
37.925157 -37.681589 23.606858
36.336846 -38.638243 23.718691
34.345824 -38.764090 23.899528
32.825609 -39.861227 23.999692
30.834587 -39.987073 24.180529
28.843565 -40.112919 24.361365
26.852542 -40.238766 24.542202
25.327043 -41.325001 24.643272
23.341305 -41.461749 24.823203
21.350283 -41.587595 25.004040
19.359261 -41.713442 25.184877
17.368239 -41.839288 25.365714
11.387491 -43.648438 24.587041
9.895206 -42.523776 24.768744
7.907805 -42.361579 24.960152
5.920403 -42.199382 25.151560
4.428118 -41.074720 25.333263
2.440717 -40.912523 25.524670
0.520052 -40.620596 25.714770
-1.038970 -39.625664 25.897781
-2.752329 -38.930750 26.083818
-4.518657 -38.338805 26.270892
-6.024709 -37.240904 26.452865
-7.998344 -37.051946 26.644003
-9.490629 -35.927284 26.825706
-10.982915 -34.802622 27.007409
-12.569470 -33.861211 27.190960
-14.205660 -33.016288 27.375483
-15.491750 -31.490799 27.553145
-17.447173 -31.266438 27.743926
-18.037941 -29.566485 27.863376
-19.355455 -28.102080 28.041653
-20.960222 -27.196073 28.225561
-22.246312 -25.670584 28.403223
-23.532403 -24.145095 28.580884
-24.795701 -22.612248 28.756699
-25.378394 -20.859649 28.877391
-26.512487 -19.285084 29.042741
-27.224385 -17.574203 29.173898
-27.784286 -15.814246 29.292743
-28.344186 -14.054289 29.411589
-28.919072 -12.299170 29.531648
-29.777465 -10.635588 29.674669
-29.608870 -8.640418 29.734513
-29.440276 -6.645248 29.794356
-29.271681 -4.650079 29.854199
-29.103087 -2.654909 29.914042
-28.934492 -0.659739 29.973885
-28.765898 1.335431 30.033729
-28.197568 3.124513 30.048504
-27.471444 4.832243 30.045488
-26.502305 6.414683 30.015074
-25.654674 8.059768 29.998360
-24.130155 9.355875 29.905330
-23.925274 11.332338 29.961082
-22.310452 12.253998 29.845453
-20.765595 13.258647 29.739489
-19.831667 14.859241 29.713045
-18.307148 16.155348 29.620014
-16.782629 17.451456 29.526984
-15.027036 18.019567 29.384843
-13.502516 19.315674 29.291813
-11.746923 19.883785 29.149672
-9.991330 20.451896 29.007531
-8.466810 21.748004 28.914500
-6.939073 23.033974 28.820786
-4.955623 22.884225 28.630218
-3.291059 23.739123 28.507424
-1.444437 24.020447 28.345936
0.311157 24.588558 28.203795
2.017568 25.311618 28.072107
3.822344 25.724780 27.919513
5.665582 26.016767 27.758744
7.564605 26.133005 27.586120
9.313596 26.721915 27.445382
11.300997 26.559718 27.253974
13.288399 26.397521 27.062566
14.949012 27.264867 26.940612
16.936413 27.102670 26.749204
18.923814 26.940473 26.557796
20.911215 26.778276 26.366388
22.898616 26.616079 26.174980
24.886018 26.453882 25.983573
26.873419 26.291685 25.792165
28.365704 25.167023 25.610462
30.353106 25.004826 25.419054
32.277105 24.719381 25.228889
33.832792 23.717967 25.045943
35.820194 23.555770 24.854535
37.535775 22.865177 24.668455
39.299880 22.268911 24.481424
40.808155 21.175331 24.299408
42.779567 20.982052 24.108314
44.430635 20.166050 23.923498
46.066825 19.321127 23.738975
47.751540 18.570531 23.553500
49.339206 17.631281 23.369927
50.975396 16.786358 23.185404
52.261486 15.260869 23.007742
53.720682 14.071882 22.826688
55.172501 13.454347 22.667963
56.093767 11.811066 22.519849
57.616365 10.745327 22.337552
59.016048 9.440654 22.157664
60.302139 7.915165 21.980003
61.588229 6.389676 21.802342
62.426136 4.719480 21.660980
63.434220 3.104230 21.505835
64.720311 1.578741 21.328174
65.280212 -0.181216 21.209328
65.859708 -1.934846 21.088895
66.718101 -3.598428 20.945874
66.549506 -5.593598 20.886031
67.407899 -7.257179 20.743010
67.239305 -9.252349 20.683166
67.070710 -11.247519 20.623323
66.902116 -13.242689 20.563480
66.733521 -15.237859 20.503637
66.564927 -17.233029 20.443794
66.396332 -19.228199 20.383950
65.431491 -20.812855 20.413880
65.101879 -22.725010 20.372191
63.736228 -24.103024 20.447309
62.850162 -25.728294 20.468357
61.822278 -26.704223 20.527217
60.647746 -28.148131 20.582024
59.521888 -29.649773 20.630107
58.359035 -30.523478 20.705420
57.319472 -32.069610 20.743774
55.986885 -33.464670 20.815165
54.462365 -34.760778 20.908195
52.706772 -35.328889 21.050336
50.951178 -35.897000 21.192477
49.426659 -37.193107 21.285507
47.671066 -37.761218 21.427648
46.714576 -39.350179 21.456636
44.873195 -39.361184 21.627873
43.312248 -40.542525 21.728645
41.551969 -41.095876 21.871782
39.569987 -40.950750 22.062038
37.903955 -41.801025 22.185144
36.058800 -42.086971 22.346320
34.255941 -42.506174 22.498507
32.547613 -43.223193 22.630602
30.607927 -43.211323 22.811869
28.620526 -43.049126 23.003277
26.959913 -43.916471 23.125232
24.972512 -43.754274 23.316639
23.307497 -44.607754 23.439529
21.324497 -44.459423 23.630002
19.337096 -44.297226 23.821410
17.349695 -44.135029 24.012818
15.362294 -43.972832 24.204225
13.374893 -43.810635 24.395633
-11.759491 -21.369946 41.078101
-13.369462 -20.412290 41.232279
-15.369282 -20.464336 41.376897
-16.979253 -19.506679 41.531074
-18.979073 -19.558725 41.675692
-20.923716 -19.467862 41.821663
-22.588865 -18.653114 41.974487
-24.198836 -17.695457 42.128665
-26.091454 -17.469851 42.275911
-27.808627 -16.789846 42.427460
-29.260948 -15.423876 42.585503
-30.983527 -14.757872 42.736919
-32.638541 -13.916876 42.889992
-33.454773 -12.400961 43.007074
-35.177352 -11.734957 43.158490
-36.624267 -10.354985 43.316666
-38.071181 -8.975014 43.474842
-39.518096 -7.595042 43.633018
-40.965011 -6.215071 43.791193
-41.713677 -4.524164 43.909932
-43.109815 -3.121581 44.065240
-43.156241 -1.117961 44.144316
-43.959677 0.548557 44.266149
-44.236566 2.449551 44.358242
-45.270464 4.013442 44.493090
-45.316890 6.017062 44.572167
-45.363317 8.020682 44.651243
-45.409743 10.024303 44.730320
-44.537914 11.674146 44.728728
-44.495948 13.643712 44.800039
-44.542375 15.647332 44.879116
-43.582154 17.263121 44.869759
-42.621933 18.878909 44.860402
-41.902468 20.587454 44.872195
-41.233017 22.315268 44.888382
-39.851759 23.768844 44.842037
-38.470502 25.222419 44.795693
-37.089244 26.675995 44.749348
-35.707986 28.129571 44.703003
-34.081064 29.026523 44.617629
-32.637071 30.337954 44.561317
-30.953709 31.107027 44.466976
-29.390032 32.147279 44.391650
-27.826354 33.187531 44.316323
-25.878442 33.357188 44.179952
-24.497184 34.810764 44.133607
-22.699180 35.320081 44.021053
-20.809470 35.621613 43.893928
-19.135683 36.412379 43.801108
-17.135863 36.464425 43.656491
-15.432099 37.187271 43.558908
-13.572365 37.556723 43.436546
-11.572546 37.608769 43.291928
-9.572726 37.660815 43.147311
-7.572906 37.712860 43.002693
-5.573086 37.764906 42.858075
-3.573266 37.816952 42.713457
-1.573446 37.868998 42.568839
0.036526 36.911342 42.414662
2.036346 36.963387 42.270044
3.984140 36.880689 42.124150
5.646137 36.057777 41.971249
7.645957 36.109823 41.826631
9.255928 35.152166 41.672453
10.874457 34.216674 41.518486
12.597037 33.550670 41.367070
14.319616 32.884666 41.215654
16.042195 32.218662 41.064237
17.489110 30.838691 40.906062
19.211689 30.172687 40.754646
20.915576 29.458271 40.602771
21.682935 27.815776 40.484491
23.161606 26.518055 40.327093
24.154181 25.458865 40.214336
25.601096 24.078894 40.056160
27.048010 22.698922 39.897984
27.796677 21.008015 39.779245
29.179255 20.190606 39.647032
29.225682 18.186986 39.567956
30.259580 16.623095 39.433107
31.067008 14.958355 39.311049
31.339904 13.055584 39.219182
31.386331 11.051963 39.140106
31.432757 9.048343 39.061029
31.479183 7.044723 38.981953
31.525610 5.041102 38.902876
31.066678 3.232182 38.868195
30.611815 1.421693 38.833157
29.727776 -0.223446 38.835821
29.058326 -1.951260 38.819634
28.388875 -3.679074 38.803447
27.719425 -5.406888 38.787260
26.338167 -6.860464 38.833605
24.956909 -8.314039 38.879949
23.575651 -9.767615 38.926294
22.194393 -11.221190 38.972639
20.504736 -11.975999 39.067980
19.123478 -13.429574 39.114325
17.620773 -14.607975 39.179965
15.744164 -14.939191 39.305007
14.362906 -16.392767 39.351352
12.493598 -16.740525 39.475235
10.929921 -17.780777 39.550562
8.985535 -17.958424 39.686372
7.366424 -18.873075 39.770506
5.802746 -19.913327 39.845832
3.802926 -19.965373 39.990450
1.803106 -20.017419 40.135068
0.228849 -21.033699 40.212075
-1.760391 -21.109717 40.355012
-3.760211 -21.161763 40.499630
-5.760031 -21.213809 40.644248
-7.759851 -21.265855 40.788866
-9.759671 -21.317900 40.933484
-13.596160 -20.131653 40.023407
-15.134274 -19.054650 40.176825
-17.137020 -18.955236 40.327378
-18.675134 -17.878233 40.480796
-20.677881 -17.778820 40.631349
-22.277879 -16.832023 40.784385
-24.218741 -16.602403 40.935319
-25.756855 -15.525400 41.088737
-27.294969 -14.448397 41.242155
-29.288964 -14.330571 41.392762
-30.835829 -13.271981 41.546126
-32.301689 -12.042954 41.699989
-33.912057 -11.117974 41.852961
-35.314414 -9.755338 42.007217
-36.656504 -8.265900 42.161843
-37.998594 -6.776461 42.316470
-39.340685 -5.287023 42.471097
-40.682775 -3.797585 42.625723
-42.024865 -2.308146 42.780350
-42.528987 -0.518967 42.884876
-42.550511 1.442837 42.960547
-43.892601 2.932275 43.115174
-45.297897 3.825365 43.251911
-45.193153 5.832335 43.320033
-45.088409 7.839306 43.388155
-44.983665 9.846276 43.456278
-44.878921 11.853246 43.524400
-44.774177 13.860217 43.592523
-44.669432 15.867187 43.660645
-44.258244 17.728591 43.700808
-43.485553 19.418276 43.707988
-42.655799 21.080855 43.709961
-42.301674 22.969365 43.755330
-40.798475 23.712898 43.673230
-39.308254 25.061745 43.614943
-38.507032 26.737876 43.619519
-37.591192 28.090131 43.603462
-35.960710 29.042634 43.519925
-34.470489 30.391480 43.461638
-32.980268 31.740327 43.403351
-31.382476 32.785205 43.325699
-29.490068 32.997578 43.195009
-27.999847 34.346425 43.136722
-26.254747 34.975051 43.032551
-24.764526 36.323897 42.974264
-22.810559 36.362320 42.832493
-21.019447 36.860928 42.720039
-19.274347 37.489554 42.615868
-17.523227 38.101171 42.510614
-15.520481 38.001758 42.360061
-13.784167 38.655211 42.257472
-11.875442 38.821476 42.123845
-9.872696 38.722063 41.973292
-7.869950 38.622649 41.822740
-5.867203 38.523236 41.672187
-3.864457 38.423822 41.521634
-1.861711 38.324409 41.371081
0.141036 38.224995 41.220529
2.143782 38.125582 41.069976
3.907079 37.522365 40.917947
5.684642 36.949165 40.766005
7.576893 36.617269 40.614771
9.225503 35.772749 40.462035
10.763616 34.695746 40.308617
12.588798 34.222735 40.156969
14.304477 33.519329 40.004646
15.930068 32.626379 39.851768
17.600703 31.828200 39.699167
18.942793 30.338762 39.544540
20.284883 28.849324 39.389914
21.955518 28.051146 39.237313
23.533160 27.057311 39.084139
24.742606 25.682819 38.943576
25.590822 24.016722 38.818478
26.932912 22.527284 38.663851
28.275002 21.037845 38.509224
28.897581 19.291038 38.397616
30.239671 17.801600 38.242989
30.862249 16.054793 38.131381
31.132198 14.181850 38.040857
32.044997 12.538854 37.911897
31.940253 10.531884 37.843774
31.835509 8.524913 37.775652
31.730765 6.517943 37.707529
31.626021 4.510973 37.639407
31.521277 2.504002 37.571285
30.622893 0.874024 37.575573
30.337397 -1.047087 37.523942
29.258262 -2.591206 37.544722
28.908224 -4.481657 37.498980
27.418003 -5.830504 37.557267
25.927782 -7.179350 37.615554
24.941722 -8.767681 37.627842
23.636339 -10.204328 37.669265
22.146118 -11.553175 37.727552
20.628512 -12.824638 37.790769
18.910798 -13.530647 37.890010
17.627778 -14.977917 37.929392
16.285059 -15.610995 38.003901
14.619375 -16.464030 38.093775
12.874275 -17.092656 38.197946
11.129175 -17.721282 38.302116
9.355435 -18.268978 38.411443
7.638975 -18.978534 38.510458
5.710396 -19.088697 38.647659
4.068103 -20.007829 38.733322
2.065357 -19.908415 38.883875
0.148816 -20.052596 39.018909
-1.579682 -20.728134 39.120091
-3.582429 -20.628721 39.270644
-5.585175 -20.529307 39.421196
-7.587921 -20.429894 39.571749
-9.590668 -20.330480 39.722302
-11.593414 -20.231067 39.872855
