ply
format ascii 1.0
element vertex 1347
property float x
property float y
property float z
end_header
15.253963 -24.541601 38.780257
13.609329 -23.653563 38.934346
11.618242 -23.790886 39.075103
9.973608 -22.902848 39.229192
7.982521 -23.040171 39.369949
5.991434 -23.177494 39.510706
4.288496 -22.462011 39.662551
2.355713 -22.426779 39.805551
0.711079 -21.538741 39.959640
-1.194237 -21.422216 40.103698
-2.695175 -20.108898 40.263316
-4.441093 -19.520620 40.413507
-6.213910 -19.011950 40.562663
-7.248505 -18.003536 40.676584
-8.920227 -17.195668 40.829630
-10.564861 -16.307630 40.983719
-12.241280 -15.513662 41.136584
-13.987197 -14.925384 41.286776
-15.488136 -13.612066 41.446394
-16.989074 -12.298748 41.606012
-18.490013 -10.985430 41.765630
-19.990951 -9.672112 41.925248
-20.824298 -8.026642 42.048478
-22.308404 -6.704949 42.207179
-23.124919 -5.051105 42.329491
-24.625857 -3.737787 42.489109
-25.442371 -2.083942 42.611421
-26.321708 -0.461354 42.737158
-26.453268 1.533281 42.822135
-27.207491 3.218119 42.941052
-27.684311 5.040974 43.044848
-27.815871 7.035609 43.129826
-27.947431 9.030244 43.214803
-28.078992 11.024879 43.299780
-27.849501 12.897925 43.353701
-27.319718 14.669842 43.381791
-27.388559 16.643355 43.461373
-26.560444 18.314804 43.463802
-25.669609 19.965132 43.460835
-24.889792 21.652846 43.467418
-23.887940 23.265787 43.454902
-22.982966 24.911352 43.450719
-21.668082 26.418874 43.411277
-20.353198 27.926396 43.371835
-19.038314 29.433918 43.332393
-17.401821 30.289759 43.244764
-16.070575 31.764128 43.202870
-14.755691 33.271650 43.163428
-13.340410 34.575736 43.108944
-11.787952 35.601859 43.033906
-10.135097 36.424547 42.943826
-8.482243 37.247235 42.853746
-6.829388 38.069922 42.763666
-5.296825 39.136359 42.691609
-3.523678 39.715298 42.583506
-1.870824 40.537985 42.493426
-0.279489 41.485332 42.412564
1.711598 41.622655 42.271807
3.224723 42.728480 42.202662
5.215810 42.865803 42.061905
6.731421 43.966589 41.992388
8.720021 44.108951 41.852004
10.711109 44.246274 41.711247
12.702196 44.383597 41.570490
14.693283 44.520920 41.429733
16.684370 44.658243 41.288976
18.675457 44.795566 41.148219
20.666544 44.932889 41.007462
22.657632 45.070212 40.866705
24.648719 45.207535 40.725948
26.639806 45.344858 40.585191
28.630609 45.481338 40.444423
30.275527 44.594143 40.290345
32.122444 44.304782 40.144041
33.911248 43.843428 39.995500
35.614280 43.128225 39.843658
37.546969 43.092713 39.700654
39.351096 42.676709 39.552703
41.097014 42.088430 39.402511
42.827324 41.453959 39.251719
44.471958 40.565921 39.097631
46.334768 40.323596 38.951938
47.835706 39.010278 38.792319
49.581624 38.421999 38.642128
51.327542 37.833721 38.491937
52.828480 36.520403 38.332319
54.329419 35.207085 38.172700
55.984395 34.349655 38.019010
57.576275 33.305489 37.862891
59.077214 31.992171 37.703273
60.578152 30.678853 37.543654
61.695261 29.174566 37.404958
62.895605 27.711690 37.261724
63.894225 26.148450 37.129486
64.993707 24.635393 36.991750
66.029572 23.090683 36.857481
66.846087 21.436839 36.735169
67.324232 19.614642 36.631301
67.455792 17.620007 36.546323
67.587353 15.625372 36.461346
67.718913 13.630737 36.376369
68.190963 11.805508 36.272832
68.949955 10.123045 36.153656
68.297255 8.392522 36.136138
67.705313 6.641538 36.113395
67.299847 4.827755 36.074611
67.244372 2.896107 36.005722
66.540573 1.182792 35.992601
65.337546 -0.362399 36.022421
64.745604 -2.113384 35.999678
63.868070 -3.768190 36.001500
62.500807 -4.687056 36.067014
61.185923 -6.194578 36.106456
60.134653 -7.790876 36.123223
58.941127 -8.768249 36.173793
57.626243 -10.275771 36.213235
56.269341 -11.698153 36.258973
54.658504 -12.605981 36.342757
53.343620 -14.113503 36.382200
51.729968 -15.015627 36.466406
50.037910 -15.758878 36.562360
48.385056 -16.581566 36.652440
46.732201 -17.404254 36.742520
45.199507 -18.470425 36.814596
43.426491 -19.049629 36.922680
41.695296 -19.713573 37.024497
39.782811 -20.010170 37.153477
38.191084 -20.956721 37.234399
36.477102 -21.655545 37.333637
34.686872 -22.199869 37.444300
32.695785 -22.337192 37.585057
30.842596 -22.753940 37.705153
29.191573 -23.580340 37.794958
27.200486 -23.717663 37.935715
25.209399 -23.854986 38.076472
23.218312 -23.992309 38.217229
21.227225 -24.129632 38.357986
19.236138 -24.266955 38.498743
17.245050 -24.404278 38.639500
-12.212426 -37.934855 26.970743
-13.783876 -36.922209 27.155584
-15.779611 -36.905331 27.342265
-17.775347 -36.888452 27.528947
-19.589915 -36.446386 27.714842
-21.342532 -35.858928 27.900468
-23.278659 -35.702152 28.086891
-24.909718 -34.829404 28.271990
-26.667388 -34.253804 28.457639
-28.361753 -33.529630 28.643012
-30.048353 -32.787235 28.828352
-31.619803 -31.774589 29.013193
-33.444846 -31.357109 29.199134
-34.839195 -29.928822 29.383206
-36.533560 -29.204648 29.568579
-37.927909 -27.776361 29.752651
-39.477052 -26.711363 29.937395
-41.016623 -25.623900 30.122097
-42.410972 -24.195613 30.306169
-43.805321 -22.767326 30.490241
-45.199670 -21.339039 30.674313
-46.594019 -19.910752 30.858385
-47.280878 -18.195744 30.987364
-47.967737 -16.480737 31.116342
-48.778986 -14.816140 31.255007
-48.755158 -12.813116 31.328642
-49.731871 -11.215576 31.480192
-49.708043 -9.212552 31.553828
-49.684215 -7.209528 31.627464
-50.660929 -5.611988 31.779014
-50.621082 -3.615792 31.850898
-49.622578 -2.028265 31.817939
-49.598749 -0.025241 31.891575
-48.584227 1.555459 31.856864
-48.411526 3.495020 31.914219
-46.983478 4.899436 31.834283
-46.531353 6.719881 31.861079
-45.528437 8.305528 31.827637
-44.800917 10.008574 31.824315
-43.909632 11.301610 31.790198
-42.362144 12.406991 31.687804
-40.934097 13.811407 31.607868
-39.222845 14.506778 31.474680
-38.452926 16.191750 31.466720
-36.784073 16.905195 31.338169
-35.072821 17.600566 31.204981
-33.644774 19.004983 31.125046
-32.131568 20.196192 31.029098
-30.222271 20.395725 30.858670
-28.540608 21.165177 30.731046
-26.799767 21.786468 30.592294
-24.949648 22.134161 30.432993
-23.354423 23.120025 30.321623
-21.358688 23.103146 30.134941
-19.671557 23.858906 30.006289
-17.767728 24.072131 29.836889
-15.771992 24.055252 29.650208
-14.176768 25.041115 29.538837
-12.181032 25.024236 29.352156
-10.185296 25.007358 29.165475
-8.189561 24.990479 28.978793
-6.281698 24.767370 28.792493
-4.622375 23.960955 28.607271
-2.626640 23.944076 28.420590
-0.630904 23.927197 28.233909
1.364832 23.910319 28.047227
2.936281 22.897673 27.862387
4.784536 22.534667 27.676345
6.503467 21.868149 27.490865
8.499203 21.851271 27.304184
10.167645 21.066259 27.118922
11.642102 19.825980 26.934503
13.256358 18.913798 26.749477
14.950723 18.189624 26.564103
16.645087 17.465451 26.378729
18.039436 16.037164 26.194657
19.499351 14.762754 26.010301
21.128150 13.884703 25.825211
22.522499 12.456416 25.641139
24.213700 11.724818 25.455779
24.903723 10.017234 25.326787
26.184715 9.125535 25.173604
27.284946 7.578053 25.012435
28.138142 5.930456 24.870504
29.114856 4.332916 24.718954
30.053013 2.719750 24.570406
30.067742 0.732352 24.493768
31.044456 -0.865188 24.342218
31.020627 -2.868212 24.268582
30.996799 -4.871236 24.194947
31.973513 -6.468776 24.043397
31.848678 -8.428742 23.980807
30.935162 -10.052499 24.004472
30.911334 -12.055523 23.930836
30.887505 -14.058547 23.857200
29.872983 -15.639247 23.891911
28.911601 -17.242599 23.920810
28.834632 -19.222970 23.852986
27.456560 -20.648691 23.927455
26.028513 -22.053108 24.007391
25.300992 -23.756154 24.010714
23.589741 -24.451525 24.143902
22.778287 -26.118790 24.156404
21.434173 -27.558987 24.227160
20.006125 -28.963404 24.307095
18.510990 -30.199856 24.399645
16.866826 -31.063192 24.520219
14.920030 -31.168841 24.697697
13.444323 -32.453934 24.786595
11.729581 -33.140568 24.920439
10.021820 -33.844676 25.052971
8.138621 -34.109552 25.218491
6.543397 -35.095416 25.329862
4.604860 -35.221744 25.505788
2.952437 -36.064401 25.627914
0.956701 -36.047522 25.814595
-0.638523 -37.033385 25.925966
-2.634259 -37.016506 26.112647
-4.517806 -37.280508 26.278233
-6.225219 -37.985491 26.410699
-8.220955 -37.968612 26.597381
-10.216690 -37.951734 26.784062
-8.568241 -38.289087 27.913034
-10.177726 -37.342944 28.098902
-12.169942 -37.409264 28.282104
-14.162157 -37.475585 28.465306
-16.154373 -37.541905 28.648509
-18.146588 -37.608226 28.831711
-19.756073 -36.662082 29.017579
-21.748289 -36.728403 29.200781
-23.419716 -35.946118 29.386217
-25.349990 -35.848580 29.569851
-26.959475 -34.902437 29.755719
-28.853704 -34.709545 29.939603
-30.304191 -33.342793 30.126578
-32.025310 -32.691962 30.311669
-33.746429 -32.041131 30.496759
-35.389632 -31.184183 30.682392
-36.918036 -30.023548 30.868824
-38.608603 -29.291896 31.054127
-40.089643 -28.005966 31.240889
-41.540130 -26.639214 31.427864
-42.990618 -25.272463 31.614838
-44.441106 -23.905711 31.801813
-45.196490 -22.223008 31.935956
-46.646978 -20.856257 32.122931
-47.402362 -19.173553 32.257074
-48.157745 -17.490850 32.391217
-49.608233 -16.124098 32.578191
-50.121747 -14.331455 32.693951
-50.180831 -12.332257 32.775171
-50.484177 -10.444084 32.874956
-51.282025 -8.780682 33.012326
-51.341109 -6.781483 33.093546
-50.392715 -5.162844 33.066437
-50.451799 -3.163646 33.147657
-50.132191 -1.307492 33.188158
-49.562489 0.454192 33.201768
-48.823119 2.151787 33.197134
-48.673180 4.072030 33.255878
-47.514047 5.611065 33.206109
-46.147117 7.071608 33.133997
-45.492581 8.801248 33.138485
-44.125651 10.261790 33.066372
-42.758720 11.722333 32.994260
-41.391790 13.182876 32.922147
-40.024860 14.643419 32.850035
-38.476772 15.700028 32.745738
-36.666251 16.171480 32.594816
-35.299321 17.632023 32.522703
-33.620017 18.396054 32.395094
-32.253087 19.856597 32.322981
-30.282748 19.971698 32.143665
-28.732296 21.023035 32.038948
-26.902800 21.452177 31.884655
-25.189629 22.140693 31.751028
-23.231818 22.283727 31.573938
-21.646961 23.258351 31.463108
-19.654746 23.324672 31.279906
-17.881531 23.879307 31.135612
-16.112078 24.442330 30.991986
-14.119863 24.508650 30.808784
-12.127647 24.574971 30.625581
-10.135432 24.641291 30.442379
-8.143217 24.707612 30.259177
-6.231431 24.561165 30.075414
-4.541516 23.827789 29.890107
-2.549300 23.894109 29.706904
-0.557085 23.960430 29.523702
1.052401 23.014286 29.337834
2.915425 22.738849 29.153732
4.654101 22.134463 28.968764
6.357663 21.437187 28.783552
8.255802 21.254640 28.599695
9.865288 20.308497 28.413827
11.521020 19.484693 28.228281
13.242139 18.833862 28.043191
14.963257 18.183031 27.858101
16.680311 17.530352 27.673320
17.439760 15.849496 27.538868
19.160879 15.198665 27.353778
20.611367 13.831913 27.166803
22.061855 12.465162 26.979828
23.512343 11.098411 26.792853
24.962830 9.731659 26.605878
25.923838 8.142420 26.456107
27.168702 6.682204 26.284761
28.008057 5.037669 26.144236
29.050167 3.485294 25.988300
29.434854 1.634094 25.882332
30.151361 -0.066280 25.751144
30.210445 -2.065479 25.669924
30.269529 -4.064678 25.588704
31.066181 -5.728623 25.451425
31.370723 -7.616252 25.351549
30.966524 -9.440453 25.320143
30.481413 -11.234090 25.297438
30.369847 -13.168829 25.234567
29.592103 -14.851928 25.243327
28.643709 -16.470567 25.270437
28.406239 -18.357747 25.221104
27.039309 -19.818290 25.293216
25.672379 -21.278832 25.365329
24.850134 -22.945122 25.378874
23.650913 -24.469015 25.432953
22.283982 -25.929558 25.505066
20.881788 -27.311470 25.583443
19.237748 -28.154131 25.704788
17.558444 -28.918162 25.832397
16.191513 -30.378705 25.904510
14.512209 -31.142735 26.032119
13.129528 -32.568157 26.107030
11.153601 -32.670797 26.287339
9.586860 -33.685815 26.394950
8.036408 -34.737152 26.499668
6.115688 -34.962889 26.670168
4.493741 -35.854810 26.787587
2.501525 -35.921131 26.970790
0.765402 -36.558470 27.108494
-1.041142 -37.038788 27.258710
-3.033358 -37.105109 27.441912
-5.025573 -37.171429 27.625114
-6.576563 -38.221569 27.729927
5.329423 -36.520120 -69.872971
3.745723 -35.508328 -69.815633
1.741432 -35.493298 -69.724496
-0.262858 -35.478268 -69.633359
-2.085300 -35.032272 -69.556835
-3.850849 -34.451446 -69.484884
-5.855139 -34.436416 -69.393747
-7.795043 -34.268794 -69.307784
-9.443129 -33.409594 -69.245271
-11.205001 -32.820053 -69.173615
-13.031120 -32.382772 -69.096796
-14.912362 -32.076129 -69.015547
-16.619110 -31.355951 -68.948320
-18.322320 -30.627388 -68.881378
-20.027300 -29.903018 -68.814294
-21.434876 -28.473831 -68.771108
-23.374499 -28.305545 -68.685168
-24.844834 -27.025090 -68.636939
-26.541899 -26.281962 -68.570491
-28.254793 -25.576349 -68.502770
-29.662369 -24.147162 -68.459585
-31.292998 -23.246587 -68.398475
-33.072327 -22.698421 -68.325416
-34.479904 -21.269234 -68.282230
-36.184883 -20.544863 -68.215145
-36.884106 -18.828119 -68.208467
-38.291682 -17.398932 -68.165282
-39.789439 -16.183463 -68.114849
-40.476547 -14.868777 -68.102823
-41.395107 -13.241074 -68.084840
-42.456712 -12.255525 -68.050914
-43.090955 -10.512403 -68.047585
-44.436878 -9.642273 -67.999005
-45.424965 -8.042793 -67.977440
-45.486027 -6.066988 -68.003651
-46.893603 -4.637800 -67.960465
-47.387460 -2.837688 -67.964371
-47.583695 -0.916756 -67.983616
-48.361870 0.767937 -67.972869
-48.348193 2.774084 -68.002932
-48.334516 4.780230 -68.032995
-48.320839 6.786376 -68.063058
-48.307162 8.792522 -68.093121
-48.293485 10.798668 -68.123185
-47.626831 12.528414 -68.178955
-47.270014 14.389311 -68.222527
-46.886075 16.238728 -68.267167
-46.163517 17.944810 -68.325139
-45.236751 19.564453 -68.391149
-44.226958 21.148950 -68.460429
-43.995843 23.063056 -68.499053
-42.568924 24.470988 -68.584754
-41.704467 25.827353 -68.644061
-40.131685 26.875797 -68.731136
-39.181985 28.485731 -68.798049
-37.982208 29.989810 -68.874808
-37.162398 31.654726 -68.936608
-35.544969 32.394619 -69.021190
-33.830288 33.093346 -69.109600
-32.403369 34.501277 -69.195302
-30.910051 35.745562 -69.281628
-29.261770 36.607935 -69.369413
-27.715385 37.721437 -69.456239
-26.118052 38.709374 -69.543545
-24.405489 39.413320 -69.631935
-22.690807 40.112047 -69.720346
-20.919096 40.670219 -69.809293
-19.261445 41.509500 -69.897167
-17.724430 42.646093 -69.983904
-16.119845 43.616158 -70.071278
-14.122807 43.619001 -70.162347
-12.118516 43.603971 -70.253484
-10.521183 44.591908 -70.340789
-8.516892 44.576878 -70.431926
-6.683151 44.982176 -70.521457
-4.915269 45.549785 -70.610369
-2.910978 45.534755 -70.701505
-1.251345 46.369151 -70.789398
0.690645 46.507662 -70.879948
2.694936 46.492632 -70.971085
4.699227 46.477602 -71.062222
6.703517 46.462572 -71.153358
8.473111 47.025963 -71.242286
10.305141 47.435479 -71.331801
12.309431 47.420449 -71.422938
14.188625 47.108951 -71.504022
15.897422 46.393627 -71.571413
17.901712 46.378597 -71.662550
19.600965 45.640657 -71.729174
21.489702 45.351776 -71.811025
23.493993 45.336746 -71.902162
25.310708 44.877179 -71.978226
27.081983 44.309924 -72.050638
29.018069 44.133255 -72.136294
30.669974 43.283102 -72.199113
32.428028 42.684514 -72.270463
34.257964 42.256280 -72.347588
35.841664 41.244489 -72.404927
37.542965 40.511403 -72.471716
39.247944 39.787033 -72.538800
41.013353 39.205875 -72.610741
42.657903 38.338292 -72.672969
44.362882 37.613921 -72.740054
46.067861 36.889551 -72.807138
47.475438 35.460364 -72.850324
49.180417 34.735993 -72.917409
50.587993 33.306806 -72.960594
52.099251 32.123333 -73.012111
52.992195 30.865691 -73.034357
54.681485 30.104138 -73.100181
56.104751 28.712134 -73.144627
57.512327 27.282946 -73.187813
58.211550 25.566202 -73.194491
59.619126 24.137015 -73.237676
60.680732 23.151467 -73.271603
61.668818 21.551987 -73.293168
62.656904 19.952508 -73.314734
63.421774 18.262413 -73.324796
64.633077 16.753548 -73.357866
65.528573 15.116482 -73.374660
65.607486 13.147923 -73.349368
65.593809 11.141777 -73.319305
66.209534 9.391137 -73.321680
66.568219 7.536151 -73.310808
66.554542 5.530005 -73.280745
66.540865 3.523859 -73.250681
66.527188 1.517713 -73.220618
66.156810 -0.337444 -73.176512
65.503718 -2.072931 -73.121276
65.416054 -4.047759 -73.088300
64.480247 -5.663574 -73.021933
63.470454 -7.248072 -72.952653
63.248380 -9.166005 -72.914386
62.446984 -10.838716 -72.853311
61.545864 -11.943793 -72.796020
60.431391 -13.422004 -72.723529
59.366025 -14.982978 -72.652062
57.939106 -16.390910 -72.566360
57.140779 -17.910253 -72.507676
55.501867 -18.795718 -72.419979
54.779309 -20.501800 -72.362007
53.064628 -21.200527 -72.273597
51.637709 -22.608459 -72.187896
50.210791 -24.016390 -72.102194
48.548905 -24.845233 -72.014281
47.069191 -26.123048 -71.928082
45.354239 -26.821107 -71.839670
43.639829 -27.520501 -71.751262
42.159573 -28.796982 -71.665058
40.498229 -29.627160 -71.577150
38.557950 -29.769889 -71.486616
36.960617 -30.757826 -71.399310
35.066423 -31.014134 -71.309210
33.639504 -32.422066 -71.223508
31.761660 -32.718671 -71.133562
29.757370 -32.703641 -71.042425
28.160037 -33.691578 -70.955120
26.205254 -33.798562 -70.864449
24.558413 -34.664485 -70.776677
22.554123 -34.649455 -70.685540
20.549832 -34.634425 -70.594403
18.952499 -35.622363 -70.507098
16.948209 -35.607333 -70.415961
14.943918 -35.592302 -70.324824
12.939627 -35.577272 -70.233687
11.336754 -36.551555 -70.146330
9.338004 -36.550180 -70.055245
7.333713 -36.535150 -69.964108
-0.407499 -35.577108 -69.836832
-1.979372 -34.549184 -69.780269
-3.982005 -34.513656 -69.689509
-5.801640 -34.056531 -69.613276
-7.556511 -33.450203 -69.542185
-9.559144 -33.414675 -69.451425
-11.500373 -33.237683 -69.365539
-13.133651 -32.351223 -69.304102
-15.136284 -32.315694 -69.213341
-16.589921 -31.015375 -69.166165
-18.280030 -30.259846 -69.100216
-19.982952 -29.533837 -69.033249
-21.854536 -29.196393 -68.952892
-23.375984 -28.052298 -68.900333
-24.767906 -26.609800 -68.858056
-26.570155 -26.112621 -68.783204
-28.160937 -25.128261 -68.725140
-29.713901 -24.056773 -68.670078
-31.174360 -23.497131 -68.611722
-32.234631 -21.923938 -68.586480
-33.844426 -20.983381 -68.526907
-35.323069 -19.740670 -68.477745
-36.714992 -18.298171 -68.435469
-38.064653 -17.420717 -68.386826
-39.092169 -15.834617 -68.363267
-40.484092 -14.392118 -68.320990
-41.995658 -13.578466 -68.264032
-42.150009 -11.648278 -68.285322
-42.933217 -9.965904 -68.274311
-44.222593 -8.482994 -68.237301
-45.614516 -7.040495 -68.195025
-45.848368 -5.141637 -68.212231
-46.820085 -3.533548 -68.191537
-47.656501 -1.872141 -68.177794
-47.757645 0.079014 -68.201816
-47.723487 2.083488 -68.232788
-47.689330 4.087961 -68.263761
-47.655173 6.092434 -68.294733
-47.621015 8.096907 -68.325705
-47.586858 10.101380 -68.356677
-47.552701 12.105853 -68.387649
-46.526782 13.678503 -68.457490
-46.492625 15.682976 -68.488462
-46.145981 17.551389 -68.531681
-44.705752 18.943643 -68.617759
-43.966805 20.641243 -68.676353
-43.227858 22.338842 -68.734947
-42.354793 23.978046 -68.798797
-41.521704 25.154558 -68.854035
-40.029235 26.414186 -68.940548
-38.589006 27.806441 -69.026626
-37.685650 29.086654 -69.086588
-36.129330 30.184185 -69.173633
-35.227480 31.810855 -69.238611
-33.669654 32.561929 -69.320640
-32.828745 34.000677 -69.380083
-31.209978 34.939673 -69.467647
-29.616855 35.943771 -69.554998
-28.010910 36.915318 -69.642456
-26.328292 37.692216 -69.730552
-25.384113 38.868792 -69.790854
-23.381480 38.833264 -69.881615
-22.097025 40.137982 -69.959308
-20.754684 40.786738 -70.030013
-18.846709 40.991520 -70.119986
-17.406481 42.383774 -70.206064
-15.685752 43.063918 -70.294477
-13.934215 43.665850 -70.383147
-11.931582 43.630322 -70.473907
-10.243065 44.392242 -70.562053
-8.323004 44.566340 -70.652125
-6.320371 44.530812 -70.742886
-4.714426 45.502359 -70.830344
-2.711793 45.466831 -70.921104
-1.078419 46.368744 -71.008790
0.896785 46.402849 -71.099322
2.899418 46.367321 -71.190083
4.902051 46.331792 -71.280843
6.904684 46.296264 -71.371604
8.907317 46.260736 -71.462364
10.909950 46.225207 -71.553124
12.912583 46.189679 -71.643885
14.915216 46.154150 -71.734645
16.917849 46.118622 -71.825406
18.920482 46.083094 -71.916166
20.631543 45.375833 -71.983779
22.494988 45.019641 -72.063489
24.497621 44.984113 -72.154250
26.330276 44.556985 -72.231516
28.072127 43.920660 -72.301573
30.027901 43.777176 -72.388613
31.646633 42.857208 -72.448896
33.420932 42.295638 -72.521530
35.117448 41.554869 -72.587988
36.793013 40.765831 -72.652782
38.795646 40.730303 -72.743543
40.367519 39.702379 -72.800106
41.939392 38.674455 -72.856669
43.600027 37.851023 -72.920278
45.296542 37.110254 -72.986736
46.688465 35.667755 -73.029013
48.384981 34.926986 -73.095471
49.776903 33.484487 -73.137748
51.370630 32.506910 -73.196045
52.695139 31.815846 -73.246276
53.929282 30.461442 -73.282654
55.547112 29.539394 -73.342865
56.939035 28.096895 -73.385142
58.330957 26.654396 -73.427419
59.722880 25.211898 -73.469696
60.547169 23.545712 -73.482816
61.795464 22.046614 -73.517716
63.187387 20.604115 -73.559993
63.462320 18.721445 -73.544897
64.434037 17.113356 -73.565590
65.229372 15.435760 -73.577224
65.910034 13.712976 -73.582967
66.343313 11.892705 -73.576004
66.560098 9.987120 -73.557922
67.280873 8.280143 -73.565726
67.246715 6.275669 -73.534753
67.212558 4.271196 -73.503781
67.178401 2.266723 -73.472809
67.144243 0.262250 -73.441837
67.110086 -1.742223 -73.410865
66.084168 -3.314872 -73.341024
65.654198 -5.147005 -73.294540
65.024092 -6.891995 -73.240211
64.176304 -8.542204 -73.177352
63.964016 -10.469117 -73.139399
62.698409 -11.937404 -73.060164
61.258181 -13.329658 -72.974086
60.519234 -15.027258 -72.915492
59.079006 -16.419512 -72.829414
57.638777 -17.811766 -72.743337
56.198549 -19.204020 -72.657259
55.459602 -20.901620 -72.598665
53.738873 -21.581765 -72.510251
52.298645 -22.974019 -72.424173
50.858417 -24.366273 -72.338095
49.300025 -25.458546 -72.251034
47.694080 -26.430093 -72.163576
45.976731 -27.118816 -72.075191
44.256002 -27.798960 -71.986777
42.535273 -28.479105 -71.898364
40.873612 -29.309205 -71.810442
39.267667 -30.280752 -71.722985
37.653587 -31.231648 -71.635459
35.932858 -31.911792 -71.547046
34.053143 -32.188318 -71.457309
32.447198 -33.159865 -71.369851
30.490171 -33.240116 -71.279471
28.838620 -34.095883 -71.191633
26.835987 -34.060355 -71.100873
25.230042 -35.031902 -71.013415
23.227409 -34.996374 -70.922655
21.224776 -34.960845 -70.831894
19.324295 -35.184653 -70.741984
17.616198 -35.896864 -70.653676
15.613565 -35.861335 -70.562916
13.610932 -35.825807 -70.472155
11.608299 -35.790279 -70.381395
9.605666 -35.754750 -70.290634
7.603033 -35.719222 -70.199874
5.600400 -35.683694 -70.109113
3.597767 -35.648165 -70.018353
1.595134 -35.612637 -69.927592
-17.408802 -43.389174 4.355403
-18.942828 -42.315781 4.569574
-20.938088 -42.221328 4.806413
-22.933347 -42.126874 5.043252
-24.928607 -42.032421 5.280091
-26.714088 -41.492724 5.506620
-28.457893 -40.864575 5.731101
-30.370974 -40.595702 5.963901
-31.987179 -39.696728 6.182111
-33.982438 -39.602275 6.418950
-35.977698 -39.507821 6.655789
-37.511724 -38.434428 6.869960
-39.045750 -37.361035 7.084132
-41.015490 -37.212418 7.319716
-42.575036 -36.193189 7.535142
-44.346235 -35.623180 7.760969
-46.011607 -34.828561 7.981596
-47.638348 -33.951949 8.200323
-49.172374 -32.878556 8.414495
-50.706400 -31.805163 8.628666
-52.346955 -30.957871 8.848073
-53.686186 -29.471037 9.052671
-55.308479 -28.584984 9.271181
-56.690790 -27.189584 9.477896
-58.030021 -25.702751 9.682494
-59.369252 -24.215917 9.887092
-60.708483 -22.729083 10.091691
-62.047714 -21.242249 10.296289
-63.590169 -20.186746 10.510874
-64.336165 -18.701579 10.645902
-65.675396 -17.214745 10.850500
-66.298474 -15.468693 10.979487
-66.921551 -13.722641 11.108473
-68.260783 -12.235808 11.313072
-68.439155 -10.328791 11.395106
-69.350648 -8.687134 11.554544
-70.130016 -6.997653 11.700032
-70.160840 -5.037229 11.766488
-70.059539 -3.028982 11.818995
-69.958238 -1.020735 11.871502
-69.856938 0.987512 11.924008
-69.755637 2.995759 11.976515
-69.654336 5.004006 12.029022
-69.553035 7.012253 12.081529
-69.451734 9.020500 12.134035
-68.379360 10.568243 12.057987
-67.923643 12.408418 12.063574
-67.205686 14.124234 12.034444
-66.331963 15.766182 11.984694
-65.060938 17.219720 11.882347
-64.053631 18.798320 11.814912
-63.257791 20.477201 11.775472
-61.843817 21.862950 11.654200
-60.724540 22.789618 11.552745
-59.242047 24.142874 11.422403
-57.759555 25.496131 11.292060
-56.963716 27.175012 11.252621
-55.226304 27.808547 11.069334
-53.488892 28.442082 10.886047
-52.483557 30.021617 10.818874
-50.955640 30.754498 10.663321
-49.473148 32.107755 10.532979
-47.735736 32.741290 10.349692
-46.231833 34.034094 10.214903
-44.515832 34.728081 10.036063
-42.601824 34.863028 9.816099
-40.967076 35.786414 9.654135
-39.303597 36.628685 9.486203
-37.566185 37.262220 9.302917
-35.828773 37.895755 9.119630
-34.067570 38.462121 8.931403
-32.072311 38.367668 8.694564
-30.361617 39.076637 8.516826
-28.442303 39.196601 8.295760
-26.631874 39.623985 8.097309
-24.812294 40.025534 7.896957
-22.817035 39.931081 7.660118
-21.164719 40.804868 7.494505
-19.187027 40.760014 7.261315
-17.191767 40.665560 7.024476
-15.196507 40.571107 6.787637
-13.201248 40.476654 6.550799
-11.205988 40.382200 6.313960
-9.210729 40.287747 6.077121
-7.215469 40.193293 5.840282
-5.220209 40.098840 5.603444
-3.236188 39.980535 5.367157
-1.690924 38.930993 5.152433
0.304336 38.836540 4.915595
2.299596 38.742087 4.678756
4.077584 38.186489 4.452595
5.828881 37.574240 4.227746
7.408329 36.597251 4.011342
9.358167 36.406394 3.776735
10.892193 35.333001 3.562564
12.730587 34.905609 3.333434
14.421479 34.165154 3.111554
16.061332 33.316371 2.892181
17.726704 32.521752 2.671555
19.484791 31.923915 2.446372
21.057449 30.932515 2.230302
22.552844 29.777128 2.018029
24.062052 28.651062 1.805077
25.620896 27.630342 1.589686
27.154922 26.556949 1.375515
29.058169 26.267205 1.143198
29.767618 24.552416 1.005092
31.020478 23.034320 0.809613
32.632898 22.220534 0.594578
33.308929 20.493649 0.460000
34.974301 19.699030 0.239374
35.597379 17.952979 0.110387
37.222715 17.073386 -0.108272
38.262157 15.548523 -0.278959
38.508907 13.666256 -0.368213
39.848138 12.179422 -0.572811
40.471216 10.433371 -0.701798
41.810447 8.946537 -0.906396
41.806827 6.973646 -0.969216
42.340450 5.195216 -1.088758
43.629812 3.690331 -1.288091
43.528511 1.682084 -1.340598
43.427210 -0.326163 -1.393104
43.325910 -2.334410 -1.445611
43.224609 -4.342657 -1.498118
43.123308 -6.350904 -1.550625
42.926872 -8.314036 -1.590537
41.949633 -9.906894 -1.527083
41.848332 -11.915141 -1.579589
41.747032 -13.923388 -1.632096
40.674658 -15.471132 -1.556047
39.634325 -17.034070 -1.484240
39.500983 -19.027122 -1.532505
38.042646 -20.391833 -1.405360
36.560153 -21.745089 -1.275018
35.764314 -23.423971 -1.235578
34.281822 -24.777227 -1.105236
33.485982 -26.456109 -1.065796
31.748570 -27.089644 -0.882509
30.266078 -28.442900 -0.752167
28.783586 -29.796157 -0.621824
27.301094 -31.149413 -0.491482
25.818601 -32.502670 -0.361139
24.156037 -33.347522 -0.193398
22.598697 -34.489461 -0.047510
20.886539 -35.194295 0.130531
19.251791 -36.117682 0.292496
17.386462 -36.390065 0.502349
15.903970 -37.743322 0.632692
14.166558 -38.376856 0.815978
12.429146 -39.010391 0.999265
10.717537 -39.716775 1.177193
8.722277 -39.622322 1.414031
7.087529 -40.545709 1.575996
5.452780 -41.469095 1.737960
3.457520 -41.374642 1.974799
1.749755 -42.091878 2.151928
-0.172488 -42.203575 2.373602
-2.167747 -42.109122 2.610441
-4.163007 -42.014668 2.847280
-5.797756 -42.938055 3.009245
-7.793015 -42.843601 3.246083
-9.788275 -42.749148 3.482922
-11.686727 -42.928013 3.699655
-13.418283 -43.578081 3.881725
-15.413542 -43.483628 4.118564
-14.937704 -45.024148 4.151792
-16.543136 -44.062017 4.370765
-18.540517 -44.108728 4.603327
-20.537898 -44.155440 4.835889
-22.535279 -44.202151 5.068451
-24.354489 -43.790264 5.294836
-26.138092 -43.286731 5.519985
-28.135474 -43.333443 5.752548
-29.782840 -42.479246 5.972974
-31.738287 -42.418023 6.204082
-33.343719 -41.455891 6.423054
-35.211191 -41.168228 6.651112
-36.946532 -40.540471 6.874589
-38.645326 -39.818643 7.096798
-40.362393 -39.143850 7.319641
-42.079460 -38.469057 7.542484
-43.760210 -37.700788 7.764068
-45.365643 -36.738657 7.983040
-46.971075 -35.776525 8.202013
-48.670579 -35.056527 8.424247
-50.573888 -34.861105 8.653547
-51.917220 -33.623737 8.850629
-52.848133 -32.009702 9.011457
-54.565200 -31.334909 9.234300
-56.005118 -29.946757 9.447533
-57.445035 -28.558605 9.660767
-58.884953 -27.170452 9.874001
-60.324871 -25.782300 10.087234
-61.764788 -24.394147 10.300468
-63.052594 -22.938492 10.498040
-63.948125 -21.308755 10.655225
-65.100528 -19.793012 10.838857
-66.124494 -18.220271 11.009265
-66.874882 -16.526124 11.151507
-68.172428 -15.074791 11.350082
-68.211397 -13.064935 11.419078
-68.408643 -11.125318 11.504369
-69.274334 -9.482339 11.658482
-70.298301 -7.909599 11.828890
-70.030724 -6.019377 11.858129
-69.375193 -4.280557 11.837052
-69.414163 -2.270701 11.906048
-69.453133 -0.260846 11.975043
-69.492103 1.749010 12.044039
-69.531073 3.758865 12.113035
-68.800360 5.468344 12.082208
-67.606919 6.997239 11.991367
-67.645888 9.007094 12.060363
-66.769483 10.659715 12.010640
-65.721734 12.245468 11.938696
-64.759657 13.864654 11.877862
-64.712784 15.791753 11.934145
-63.049252 16.605543 11.765295
-61.862077 18.136883 11.675267
-60.682939 19.090457 11.567660
-59.298133 20.544669 11.452001
-58.621174 22.275126 11.428146
-56.931819 23.029583 11.254367
-55.340094 24.008361 11.099220
-54.053472 25.314670 10.990325
-53.180700 26.968709 10.941073
-51.491345 27.723166 10.767295
-49.801990 28.477622 10.593516
-48.417184 29.931835 10.477857
-46.727829 30.686291 10.304078
-45.038474 31.440748 10.130299
-43.388324 32.285284 9.964002
-41.659764 32.949661 9.782742
-39.970409 33.704118 9.608963
-38.257575 34.404627 9.430704
-36.287150 34.513275 9.203286
-34.693511 35.487655 9.047773
-32.908440 36.022188 8.855728
-31.129446 36.570682 8.664843
-29.132065 36.617393 8.432281
-27.535827 37.585802 8.276272
-25.568000 37.700421 8.049350
-23.852568 38.394959 7.870595
-22.003936 38.783448 7.666420
-20.006555 38.830160 7.433858
-18.009173 38.876871 7.201296
-16.011792 38.923583 6.968733
-14.014411 38.970295 6.736171
-12.017030 39.017006 6.503609
-10.019649 39.063718 6.271047
-8.022268 39.110429 6.038485
-6.024887 39.157141 5.805923
-4.419455 38.195009 5.586950
-2.422074 38.241721 5.354388
-0.424693 38.288432 5.121826
1.227420 37.446452 4.901235
3.178121 37.373012 4.670292
4.938704 36.810227 4.445940
6.780934 36.457592 4.218757
8.778315 36.504304 3.986195
10.367055 35.499208 3.767801
11.989180 34.580041 3.548250
13.801190 34.149623 3.322115
15.591993 33.664621 3.096716
17.235324 32.800038 2.876430
18.802858 31.740358 2.658771
20.392309 30.737093 2.440353
22.013722 29.816095 2.220826
23.619154 28.853963 2.001854
25.266361 27.999355 1.781433
26.383960 27.058535 1.620310
27.853752 25.953965 1.412666
29.459185 24.991833 1.193694
31.160982 24.277738 0.971380
31.904402 22.580498 0.829856
33.621469 21.905705 0.607013
34.463706 20.252318 0.455316
35.931000 19.145125 0.247880
36.825375 17.836434 0.101122
38.265293 16.448281 -0.112111
39.008713 14.751042 -0.253635
39.752132 13.053802 -0.395159
40.596156 11.401208 -0.547041
41.620123 9.828468 -0.717449
41.659093 7.818612 -0.786445
42.725811 6.264844 -0.961255
43.707026 4.673132 -1.127262
43.745996 2.663276 -1.196257
43.784966 0.653421 -1.265253
43.823935 -1.356435 -1.334249
43.862905 -3.366290 -1.403244
43.901875 -5.376146 -1.472240
43.940845 -7.386001 -1.541236
43.457067 -9.191849 -1.542434
42.780109 -10.922306 -1.518579
42.055661 -12.634230 -1.488564
41.426191 -14.383221 -1.470867
40.749232 -16.113678 -1.447012
40.072274 -17.844135 -1.423156
39.208399 -19.501646 -1.375059
38.010509 -21.028804 -1.283641
37.284245 -22.740019 -1.253391
35.788080 -23.844319 -1.113466
34.347695 -25.002392 -0.981801
33.582431 -26.698388 -0.946492
32.197625 -28.152600 -0.830833
30.533742 -28.965583 -0.661916
29.123464 -30.361269 -0.541396
27.738658 -31.815482 -0.425737
26.049304 -32.569938 -0.251958
24.359949 -33.324395 -0.078179
22.975143 -34.778607 0.037480
21.285788 -35.533064 0.211259
19.596433 -36.287520 0.385037
18.000273 -37.256110 0.541031
16.217723 -37.796434 0.732595
14.832917 -39.250646 0.848254
12.869525 -39.375453 1.074329
11.302841 -40.411769 1.224698
9.305460 -40.458481 1.457260
7.738777 -41.494797 1.607628
6.081593 -42.323173 1.775267
4.174712 -42.577824 1.990559
2.177331 -42.624536 2.223121
0.179950 -42.671247 2.455683
-1.589474 -43.241732 2.644742
-3.384115 -43.754275 2.838613
-5.381496 -43.800986 3.071175
-7.266637 -44.105590 3.282318
-8.945560 -44.884013 3.454106
-10.942942 -44.930725 3.686668
-12.940323 -44.977437 3.919230
16.928411 -29.786560 63.081875
15.419322 -28.663934 63.151855
13.417529 -28.504868 63.202694
11.415735 -28.345802 63.253532
9.413942 -28.186737 63.304371
7.904853 -27.064111 63.374351
5.981119 -26.752388 63.428222
4.393970 -25.782419 63.495170
2.680416 -25.059657 63.557207
0.883088 -24.500727 63.615989
-0.626001 -23.378101 63.685970
-2.619033 -23.201902 63.737149
-3.920990 -21.674196 63.815177
-5.571342 -20.827831 63.879669
-7.155061 -19.851157 63.946750
-8.664150 -18.728531 64.016731
-9.445933 -17.371561 64.077463
-11.098570 -16.529665 64.141867
-12.018567 -15.442996 64.197229
-13.320524 -13.915291 64.275257
-14.822077 -13.020727 64.337866
-15.544763 -11.305386 64.408559
-16.118652 -9.541847 64.477368
-17.420608 -8.014141 64.555396
-18.298461 -6.349061 64.628055
-19.296453 -4.722896 64.702234
-20.036652 -3.013228 64.773149
-19.876104 -1.011792 64.832659
-20.290049 0.803556 64.899443
-20.584651 2.657561 64.964716
-20.424102 4.658997 65.024226
-20.263553 6.660433 65.083736
-20.103005 8.661869 65.143246
-19.942456 10.663305 65.202756
-19.781908 12.664741 65.262266
-18.657926 14.174285 65.284196
-17.795272 15.817252 65.316320
-16.947515 17.467825 65.349024
-15.418509 18.770578 65.355156
-14.570752 20.421151 65.387861
-13.041745 21.723904 65.393993
-11.958624 22.646750 65.398336
-10.429617 23.949503 65.404468
-9.536588 25.460100 65.431718
-7.817489 26.175102 65.414943
-6.053118 26.750128 65.392714
-4.524111 28.052881 65.398846
-2.860834 28.940480 65.388798
-1.191896 29.810575 65.378069
0.533637 30.505686 65.360519
2.478836 30.521605 65.316500
4.062379 31.655738 65.316061
5.816713 32.261795 65.295041
7.591120 32.805790 65.271602
9.487445 32.972824 65.233473
11.355226 33.228116 65.198783
13.158177 33.683853 65.171904
15.159971 33.524788 65.121066
16.883702 34.225468 65.103734
18.830703 34.235817 65.059498
20.832496 34.076751 65.008660
22.834290 33.917686 64.957821
24.836083 33.758620 64.906983
26.837877 33.599554 64.856145
28.839670 33.440489 64.805306
30.841464 33.281423 64.754468
32.843257 33.122357 64.703629
34.845051 32.963292 64.652791
36.846844 32.804226 64.601953
38.355933 31.681600 64.531972
40.198180 31.210516 64.474935
41.866816 30.399908 64.411153
43.847278 30.199125 64.359486
45.377698 29.118216 64.290334
47.147981 28.506395 64.230501
48.798332 27.660029 64.166009
50.397670 26.713898 64.099534
51.906759 25.591272 64.029554
53.400992 24.439593 63.958996
54.924937 23.346020 63.889592
56.434026 22.223394 63.819612
58.003652 21.219157 63.751983
59.452204 19.978142 63.679650
60.955960 18.845086 63.609463
61.813911 17.173560 63.537057
62.903007 15.693089 63.465392
63.754088 14.471642 63.407352
65.056044 12.943937 63.329324
66.358001 11.416231 63.251295
66.931889 9.652692 63.182486
67.505777 7.889153 63.113677
67.944400 6.081799 63.046580
68.653554 4.362074 62.976058
68.652948 2.412446 62.914523
68.492399 0.411010 62.855013
69.361495 -1.256907 62.782466
68.927701 -3.118834 62.733614
68.076965 -4.767886 62.701026
67.916416 -6.769322 62.641516
67.065680 -8.418374 62.608927
66.631887 -10.280302 62.560075
66.051415 -12.067341 62.516945
64.522409 -13.370094 62.510813
63.674652 -15.020667 62.478109
62.826894 -16.671240 62.445404
61.975413 -18.319912 62.412845
60.214767 -18.896839 62.434929
58.685760 -20.199592 62.428797
57.156753 -21.502345 62.422665
55.392382 -22.077371 62.444894
53.863375 -23.380123 62.438762
52.299648 -24.575522 62.436815
50.569998 -25.257902 62.454860
48.805627 -25.832928 62.477089
47.276620 -27.135681 62.470957
45.512250 -27.710707 62.493187
43.622100 -27.896837 62.530572
41.953162 -28.766932 62.541302
40.219137 -29.435785 62.559874
38.282430 -29.477961 62.602870
36.280636 -29.318895 62.653708
34.611698 -30.188990 62.664438
32.609904 -30.029925 62.715277
30.608111 -29.870859 62.766115
28.926820 -30.702762 62.778333
26.937379 -30.581888 62.827683
24.935585 -30.422823 62.878521
22.933792 -30.263757 62.929360
20.931998 -30.104691 62.980198
18.930205 -29.945626 63.031036
-14.167476 -44.887394 2.849005
-15.751991 -43.890895 3.066628
-17.749748 -43.894663 3.300611
-19.747506 -43.898432 3.534594
-21.745264 -43.902200 3.768577
-23.743022 -43.905969 4.002560
-25.740779 -43.909737 4.236543
-27.325294 -42.913238 4.454166
-29.246228 -42.731052 4.685107
-30.907567 -41.920507 4.905771
-32.905325 -41.924275 5.139754
-34.489840 -40.927776 5.357377
-36.347295 -40.591936 5.585806
-38.072113 -39.935045 5.808983
-39.751725 -39.168730 6.030371
-41.453940 -38.457128 6.252653
-43.238901 -37.945815 6.478212
-44.858369 -37.033922 6.697218
-46.560584 -36.322319 6.919501
-48.262799 -35.610716 7.141784
-49.672808 -34.191817 7.352498
-51.574719 -33.963585 7.582686
-52.374393 -32.474542 7.724128
-53.871358 -31.677062 7.925112
-54.783772 -30.049971 8.084190
-56.485987 -29.338368 8.306473
-57.895995 -27.919469 8.517187
-59.306003 -26.500570 8.727902
-60.716011 -25.081671 8.938616
-61.803063 -24.112684 9.097063
-62.793330 -22.518166 9.264220
-63.832554 -20.944131 9.436458
-65.437423 -19.996899 9.654887
-65.765210 -18.320100 9.747050
-66.755477 -16.725582 9.914208
-67.656260 -15.093624 10.072079
-67.742039 -13.120669 10.145377
-68.732306 -11.526151 10.312535
-69.074907 -9.660650 10.412483
-69.718868 -7.921238 10.543704
-69.715163 -5.910843 10.607717
-69.711458 -3.900449 10.671729
-70.497873 -2.220639 10.817732
-70.698020 -0.295536 10.902898
-69.701869 1.302729 10.837401
-69.698164 3.313124 10.901413
-68.753100 4.932604 10.842583
-68.698308 6.921784 10.899928
-68.027901 8.655320 10.876939
-67.698452 10.530444 10.898443
-66.600936 12.086616 10.819718
-65.706149 13.726974 10.767448
-64.709998 15.325240 10.701951
-63.758723 16.942140 10.642310
-62.343475 18.366369 10.522122
-60.928227 19.790597 10.401935
-59.732947 21.306171 10.310452
-58.509895 22.224275 10.196562
-57.741724 23.917213 10.160815
-56.091563 24.657953 9.991190
-54.386713 25.375982 9.814428
-52.971465 26.800211 9.694240
-52.047993 28.003796 9.624608
-50.459794 29.006280 9.470633
-48.848283 29.951918 9.312105
-47.283396 31.011248 9.162685
-45.695197 32.013733 9.008711
-44.023336 32.812206 8.838394
-42.109240 33.019985 8.620754
-40.521041 34.022469 8.466780
-38.908787 34.966295 8.308107
-36.935084 35.028722 8.078823
-35.209486 35.696156 7.898008
-33.349128 36.034974 7.690866
-31.760929 37.037459 7.536892
-29.805336 37.144047 7.311146
-28.174972 38.043711 7.148935
-26.177214 38.047480 6.914952
-24.179456 38.051248 6.680970
-22.406734 38.603769 6.490948
-20.593499 39.057501 6.293013
-18.595742 39.061269 6.059030
-16.597984 39.065038 5.825047
-14.600226 39.068806 5.591064
-12.602468 39.072574 5.357081
-10.604711 39.076343 5.123098
-8.606953 39.080111 4.889115
-6.609195 39.083880 4.655132
-4.747486 38.758338 4.426536
-3.026922 38.091149 4.203527
-1.029165 38.094917 3.969544
0.943572 38.038122 3.736551
2.553108 37.102186 3.517938
4.550866 37.105955 3.283955
6.135381 36.109455 3.066332
8.133139 36.113224 2.832349
9.746854 35.187403 2.613570
11.449068 34.475800 2.391288
13.299927 34.123993 2.163121
14.884442 33.127494 1.945498
16.555713 32.340991 1.724440
18.257928 31.629389 1.502158
19.960143 30.917786 1.279875
21.635745 30.141764 1.058646
23.220260 29.145265 0.841023
24.774581 28.075681 0.624595
26.389290 27.152266 0.405777
27.886804 25.945179 0.191599
29.296812 24.526280 -0.019116
30.706821 23.107381 -0.229830
32.314107 22.166001 -0.448355
33.116199 20.682810 -0.589892
34.526208 19.263910 -0.800607
35.936216 17.845011 -1.011321
37.638431 17.133409 -1.233603
38.583753 15.520086 -1.396097
39.052758 13.707472 -1.509163
39.759922 11.994504 -1.646942
40.560582 10.320654 -1.794424
41.174250 8.568568 -1.922502
41.881413 6.855599 -2.060281
42.588577 5.142631 -2.198061
43.527679 3.526705 -2.359909
43.523974 1.516311 -2.423921
43.520269 -0.494084 -2.487933
43.516564 -2.504479 -2.551945
43.512858 -4.514874 -2.615957
43.509153 -6.525268 -2.679970
43.505448 -8.535663 -2.743982
42.509297 -10.133928 -2.678484
42.261993 -12.043164 -2.710708
41.509441 -13.742588 -2.676999
40.835028 -15.474460 -2.653487
40.509585 -17.351248 -2.675514
39.408063 -18.905756 -2.596267
37.992815 -20.329985 -2.476079
37.279332 -22.045633 -2.447469
35.864084 -23.469861 -2.327281
34.536383 -24.930445 -2.218518
33.735354 -26.609738 -2.178483
32.030504 -27.327767 -2.001721
30.615257 -28.751996 -1.881534
29.560411 -30.325887 -1.808377
28.196924 -31.185674 -1.676161
26.781677 -32.609902 -1.555974
25.076827 -33.327932 -1.379212
23.661579 -34.752160 -1.259024
21.956729 -35.470190 -1.082262
20.251880 -36.188220 -0.905500
18.515694 -36.829837 -0.722616
16.842180 -37.624279 -0.551975
15.339296 -38.834805 -0.414668
13.432481 -39.060339 -0.198451
11.753339 -39.841058 -0.026711
10.022782 -40.496398 0.155073
8.576941 -41.846026 0.281237
6.579184 -41.849794 0.515220
4.908233 -42.650487 0.685360
2.993227 -42.856047 0.903177
0.995469 -42.859815 1.137160
-0.785519 -43.392179 1.328796
-2.590488 -43.866068 1.525117
-4.588245 -43.869836 1.759100
-6.189670 -44.840070 1.915657
-8.174202 -44.876089 2.147057
-10.171960 -44.879858 2.381040
-12.169718 -44.883626 2.615022
