ply
format ascii 1.0
element vertex 1200
property float x
property float y
property float z
end_header
10.877974 -49.619415 -58.390273
9.194144 -48.787279 -58.277645
7.201498 -48.992168 -58.137014
5.208851 -49.197057 -57.996383
3.216205 -49.401947 -57.855752
1.532375 -48.569811 -57.743124
-0.460271 -48.774700 -57.602493
-2.184731 -48.079000 -57.486181
-4.136748 -48.147453 -57.349234
-6.129394 -48.352342 -57.208603
-7.939009 -47.942599 -57.084570
-9.497055 -46.688070 -56.983347
-11.489701 -46.892959 -56.842716
-13.256555 -46.339623 -56.722560
-15.166178 -46.265713 -56.589458
-16.801586 -45.270972 -56.481220
-18.533838 -44.601441 -56.364201
-20.217668 -43.769305 -56.251573
-21.901498 -42.937169 -56.138945
-23.673281 -42.400384 -56.018342
-25.445796 -41.866058 -55.897672
-26.999945 -40.598445 -55.796804
-28.772460 -40.064120 -55.676134
-30.326609 -38.796507 -55.575265
-32.313295 -38.981378 -55.435175
-33.871640 -37.727856 -55.333925
-35.530953 -37.132272 -55.221551
-35.854837 -35.198905 -55.210839
-37.408986 -33.931292 -55.109970
-38.963136 -32.663679 -55.009101
-40.091987 -31.781037 -54.935600
-41.618066 -30.498234 -54.836788
-42.500482 -28.867115 -54.785146
-44.216183 -28.142003 -54.669628
-44.653021 -26.429802 -54.649649
-45.366095 -24.707043 -54.610416
-46.920244 -23.439430 -54.509547
-47.802659 -21.808311 -54.457905
-48.323955 -19.981772 -54.432725
-49.479182 -18.498284 -54.361090
-49.684434 -16.500719 -54.359072
-49.889687 -14.503155 -54.357053
-50.871269 -12.925699 -54.298143
-51.250166 -11.022102 -54.283399
-51.455419 -9.024538 -54.281380
-51.100445 -7.194834 -54.317506
-50.831273 -5.339420 -54.347791
-51.036525 -3.341856 -54.345772
-50.235244 -1.645878 -54.412287
-50.412379 0.343261 -54.412183
-49.902313 2.126496 -54.458869
-49.370043 3.903077 -54.507068
-48.837774 5.679658 -54.555267
-47.573895 7.237028 -54.653280
-47.041625 9.013609 -54.701479
-46.470638 10.778590 -54.752313
-45.245477 12.347561 -54.847691
-43.981599 13.904930 -54.945704
-43.449329 15.681512 -54.993903
-41.822533 16.565363 -55.113139
-40.558655 18.122733 -55.211153
-39.259907 19.615391 -55.311205
-37.667981 20.563955 -55.428403
-36.611747 22.183541 -55.512278
-35.508915 23.224387 -55.595838
-34.245037 24.781757 -55.693851
-32.957413 26.295061 -55.793253
-30.991445 26.549460 -55.932324
-29.727567 28.106830 -56.030338
-28.005959 28.814726 -56.155119
-26.473975 29.874533 -56.268811
-24.847179 30.758385 -56.388047
-23.054505 31.334391 -56.516984
-21.575101 32.491779 -56.627601
-19.966792 33.409939 -56.745756
-18.103051 33.854057 -56.878849
-16.350283 34.504124 -57.005452
-14.631001 35.216334 -57.130097
-13.096692 36.271827 -57.243925
-11.158950 36.578611 -57.381345
-9.480183 37.366011 -57.503621
-7.686900 37.940888 -57.632594
-5.694254 38.145777 -57.773225
-3.701607 38.350667 -57.913856
-1.884248 38.880862 -58.044236
-0.229557 39.712944 -58.165104
1.763090 39.917833 -58.305735
3.755736 40.122722 -58.446366
5.748382 40.327611 -58.586997
7.741029 40.532501 -58.727628
9.733675 40.737390 -58.868259
11.726322 40.942279 -59.008890
13.718968 41.147168 -59.149520
15.680710 41.248277 -59.287349
17.395445 40.519921 -59.402779
19.388091 40.724811 -59.543410
21.380738 40.929700 -59.684041
23.064568 40.097564 -59.796669
25.057214 40.302453 -59.937300
26.752534 39.508900 -60.050970
28.733691 39.675206 -60.190559
30.515930 39.173537 -60.312111
32.410167 39.047959 -60.443818
34.060961 38.104886 -60.553451
35.777827 37.383687 -60.669074
37.770474 37.588577 -60.809705
39.454304 36.756441 -60.922333
41.151022 35.967585 -61.036130
42.923538 35.433259 -61.156800
44.696053 34.898934 -61.277470
46.468568 34.364609 -61.398140
48.182271 33.632786 -61.513476
49.795233 32.562671 -61.619678
51.349382 31.295058 -61.720547
53.121897 30.760732 -61.841217
54.894412 30.226407 -61.961886
56.448561 28.958794 -62.062755
58.002711 27.691181 -62.163624
59.556860 26.423568 -62.264493
61.111009 25.155956 -62.365361
62.719109 24.069512 -62.471122
63.765940 22.990511 -62.537674
64.749776 21.414275 -62.596749
65.905003 19.930786 -62.668384
67.084920 18.460659 -62.741828
68.215457 16.963810 -62.811654
69.370685 15.480321 -62.883289
69.732166 13.567300 -62.896757
70.731164 11.999268 -62.956943
71.886391 10.515780 -63.028578
72.379413 8.673941 -63.051685
73.246871 7.034727 -63.102232
73.452123 5.037163 -63.104251
73.657376 3.039598 -63.106270
73.862628 1.042034 -63.108289
74.067881 -0.955531 -63.110308
74.227275 -2.939355 -63.109204
73.443734 -4.640648 -63.043897
73.648987 -6.638212 -63.045916
73.362075 -8.488310 -63.014423
72.829805 -10.264891 -62.966225
72.195442 -12.010882 -62.911075
71.765265 -13.818054 -62.869828
70.536645 -15.385988 -62.774215
69.969117 -17.152005 -62.723616
68.877848 -18.761094 -62.637355
68.172969 -20.485956 -62.577404
66.909090 -22.043326 -62.479390
65.645212 -23.600696 -62.381377
65.112942 -25.377277 -62.333178
63.486146 -26.261129 -62.213941
62.222268 -27.818499 -62.115928
60.958389 -29.375869 -62.017914
59.331594 -30.259720 -61.898678
58.007275 -31.704922 -61.797130
56.440920 -32.700941 -61.681428
55.177041 -34.258311 -61.583415
53.569063 -35.177086 -61.465279
51.923450 -36.026014 -61.344942
50.610255 -37.491862 -61.244044
48.669858 -37.793717 -61.106469
47.138205 -38.854139 -60.992796
45.658801 -40.011527 -60.882179
43.789471 -40.445272 -60.748759
42.525592 -42.002642 -60.650746
40.707347 -42.531193 -60.520314
38.714701 -42.736082 -60.379683
37.235297 -43.893470 -60.269066
35.292575 -44.191011 -60.131354
33.763246 -45.255747 -60.017817
31.770600 -45.460636 -59.877186
30.049270 -46.169047 -59.752422
28.298550 -46.822913 -59.625938
26.305903 -47.027803 -59.485307
24.443048 -47.473565 -59.352266
22.833853 -48.390080 -59.234059
20.841207 -48.594969 -59.093428
18.848560 -48.799858 -58.952797
16.855914 -49.004747 -58.812166
14.863267 -49.209637 -58.671535
12.870621 -49.414526 -58.530904
0.506413 -51.086602 -58.740682
-0.982284 -49.941877 -58.643632
-2.975381 -49.753947 -58.505396
-4.968479 -49.566017 -58.367159
-6.743081 -48.963624 -58.246764
-8.450273 -48.233362 -58.131873
-10.443371 -48.045432 -57.993636
-12.358534 -47.709668 -57.861763
-13.925164 -46.712777 -57.758350
-15.918262 -46.524846 -57.620113
-17.406958 -45.380122 -57.523063
-19.251361 -44.910133 -57.396968
-20.885402 -44.041111 -57.288050
-22.377448 -42.902742 -57.190727
-23.866145 -41.758017 -57.093677
-25.859242 -41.570087 -56.955440
-27.778229 -41.241576 -56.823255
-29.341036 -40.237432 -56.720154
-30.689644 -38.826976 -56.634543
-32.318429 -37.947983 -56.526054
-32.871509 -36.186996 -56.498247
-34.505550 -35.317973 -56.389329
-36.139590 -34.448951 -56.280411
-37.691399 -33.423944 -56.178208
-39.051005 -32.034350 -56.091699
-40.668791 -31.134494 -55.984108
-41.232870 -29.394370 -55.955403
-42.510245 -27.848792 -55.875608
-43.787620 -26.303213 -55.795814
-45.064994 -24.757635 -55.716019
-46.030122 -23.681966 -55.655161
-47.246860 -22.117655 -55.579724
-47.794684 -20.346698 -55.552346
-49.072059 -18.801119 -55.472551
-49.410611 -16.965512 -55.460209
-50.167708 -15.259204 -55.417795
-50.715533 -13.488247 -55.390417
-51.945978 -11.928171 -55.313995
-51.759361 -9.930323 -55.339385
-52.359007 -8.175375 -55.308284
-52.417867 -6.253362 -55.316037
-53.262989 -4.574249 -55.267299
-53.076372 -2.576401 -55.292689
-52.889755 -0.578553 -55.318079
-52.703138 1.419294 -55.343469
-51.645985 2.955716 -55.426895
-51.375205 4.908953 -55.457896
-51.188588 6.906801 -55.483286
-50.397481 8.584239 -55.548975
-49.860655 10.396459 -55.597713
-49.340120 12.217314 -55.645364
-48.454285 13.791212 -55.717039
-46.707463 14.403330 -55.842992
-45.841245 16.040957 -55.913689
-44.975028 17.678583 -55.984386
-43.433737 18.958388 -56.100087
-42.567519 20.596015 -56.170784
-41.026228 21.875820 -56.286485
-39.643291 23.239560 -56.391630
-38.393571 24.061836 -56.484114
-36.852280 25.341641 -56.599815
-35.319122 26.625756 -56.714974
-34.219623 27.527657 -56.797443
-32.540711 28.360388 -56.920009
-30.911892 29.355851 -57.040076
-29.370601 30.635656 -57.155778
-27.604162 31.184045 -57.282709
-25.841952 31.746177 -57.409430
-24.167263 32.592624 -57.531785
-22.492573 33.439072 -57.654140
-20.763552 34.109018 -57.779205
-18.824785 34.097589 -57.914732
-17.150096 34.944036 -58.037087
-15.464233 35.754186 -58.159999
-13.697793 36.302576 -58.286931
-11.931354 36.850965 -58.413862
-10.132929 37.295448 -58.542389
-8.139831 37.107518 -58.680626
-6.406886 37.764718 -58.805886
-4.472044 37.766035 -58.941217
-2.478946 37.578104 -59.079454
-0.657271 37.947056 -59.209141
1.188842 38.236621 -59.340046
2.875609 39.043835 -59.463003
4.856629 38.895139 -59.600638
6.849727 38.707208 -59.738874
8.842825 38.519278 -59.877111
10.835922 38.331348 -60.015347
12.829020 38.143418 -60.153584
14.822118 37.955487 -60.291821
16.815215 37.767557 -60.430057
18.808313 37.579627 -60.568294
20.801411 37.391696 -60.706530
22.789726 37.194693 -60.844376
24.283205 36.059042 -60.941817
26.276302 35.871111 -61.080053
28.048513 35.264182 -61.200254
29.758096 34.538456 -61.315340
31.751194 34.350526 -61.453577
33.663965 34.010226 -61.585254
35.232988 33.017871 -61.688863
37.226086 32.829941 -61.827100
38.714782 31.685216 -61.924149
40.203478 30.540491 -62.021199
42.190833 30.341669 -62.158967
43.685272 29.207837 -62.256486
45.173968 28.063112 -62.353536
47.092955 27.734601 -62.485721
48.655762 26.730457 -62.588822
50.144458 25.585732 -62.685872
51.638410 24.450978 -62.783351
53.121850 23.296283 -62.879972
54.610547 22.151558 -62.977022
56.183866 21.167354 -63.080981
57.461241 19.621776 -63.160776
59.076635 18.717384 -63.268171
60.372656 17.207175 -63.349488
61.650030 15.661597 -63.429283
62.927405 14.116019 -63.509077
64.204780 12.570440 -63.588872
65.422512 11.006437 -63.664381
66.029979 9.253904 -63.696044
67.307354 7.708326 -63.775839
68.584728 6.162748 -63.855633
69.132553 4.391790 -63.883011
70.409928 2.846212 -63.962806
70.493246 0.931755 -63.956810
71.338369 -0.747358 -64.005548
71.323852 -2.692039 -63.992523
71.996874 -4.424319 -64.028896
71.810257 -6.422167 -64.003506
72.237776 -8.230290 -64.022240
72.468762 -10.099128 -64.026854
72.282145 -12.096976 -64.001464
72.095528 -14.094823 -63.976074
71.908911 -16.092671 -63.950684
71.722294 -18.090519 -63.925293
71.114536 -19.578801 -63.873596
69.494139 -20.490940 -63.754632
69.307522 -22.488788 -63.729242
69.071138 -24.460257 -63.700534
67.979589 -25.978447 -63.614815
67.338703 -27.735510 -63.559141
66.472485 -29.373136 -63.488444
64.931194 -30.652941 -63.372742
63.963572 -31.961144 -63.296988
62.298537 -32.838957 -63.175114
61.186172 -34.346113 -63.088008
59.891029 -35.756389 -62.988716
58.903540 -37.329736 -62.909934
57.258372 -37.942405 -62.791088
56.297692 -39.273162 -62.715679
54.625715 -40.128421 -62.593459
52.948312 -40.966056 -62.470969
51.317984 -41.956615 -62.350826
49.598933 -42.658951 -62.226259
48.268141 -43.921502 -62.125386
46.918887 -44.691020 -62.026267
45.156678 -45.253152 -61.899546
43.481988 -46.099600 -61.777191
41.619568 -46.336189 -61.645473
39.853129 -46.884578 -61.518541
38.311838 -48.164383 -61.402840
36.464821 -48.451011 -61.271889
34.553810 -48.529746 -61.137747
32.797034 -49.109528 -61.011297
31.122344 -49.955976 -60.888942
29.129246 -49.768046 -60.750706
27.454557 -50.614493 -60.628350
25.461459 -50.426563 -60.490114
23.504875 -50.357252 -60.353698
21.963584 -51.637057 -60.237997
20.118982 -51.931527 -60.107167
18.125884 -51.743597 -59.968930
16.132786 -51.555666 -59.830694
14.447529 -52.367784 -59.707811
12.464999 -52.214184 -59.570102
10.471901 -52.026253 -59.431865
8.478803 -51.838323 -59.293629
6.485706 -51.650393 -59.155392
4.492608 -51.462462 -59.017156
2.499510 -51.274532 -58.878919
-17.376950 -40.468242 -7.788251
-19.043664 -39.637193 -7.566373
-20.891610 -39.412159 -7.338790
-22.687203 -39.012065 -7.112855
-24.664028 -39.217986 -6.881215
-26.382881 -38.561282 -6.657696
-28.307567 -38.592858 -6.427698
-30.284392 -38.798780 -6.196058
-31.951106 -37.967730 -5.974180
-33.850763 -37.915613 -5.744969
-35.594645 -37.342602 -5.520662
-37.571469 -37.548524 -5.289023
-39.238183 -36.717474 -5.067145
-40.904897 -35.886425 -4.845267
-42.637412 -35.275403 -4.621318
-44.548436 -35.261297 -4.391749
-46.152071 -34.219319 -4.171857
-47.881864 -33.599198 -3.947994
-49.548578 -32.768148 -3.726116
-51.215292 -31.937099 -3.504238
-52.962109 -31.373902 -3.279839
-54.500157 -30.112611 -3.062012
-56.215434 -29.443950 -2.838605
-57.473021 -28.761974 -2.669739
-58.970146 -27.721568 -2.462662
-60.640649 -26.903189 -2.240665
-62.178697 -25.641897 -2.022838
-63.716746 -24.380606 -1.805010
-65.254794 -23.119315 -1.587183
-66.792842 -21.858024 -1.369356
-68.330891 -20.596733 -1.151528
-69.417092 -19.089790 -0.981394
-70.794809 -17.901975 -0.784739
-71.825225 -16.818098 -0.632487
-73.363274 -15.556806 -0.414659
-73.939779 -13.772763 -0.298325
-75.084965 -12.297888 -0.121965
-75.299234 -10.316911 -0.043865
-76.971177 -9.503347 0.178177
-77.515585 -7.940954 0.284799
-77.713889 -5.951298 0.361214
-78.322979 -4.184969 0.480987
-79.057379 -2.486766 0.613988
-80.059983 -0.934376 0.775298
-80.400868 0.977766 0.866763
-79.570191 2.658462 0.811595
-79.768495 4.648119 0.888010
-79.966799 6.637775 0.964425
-80.165103 8.627432 1.040839
-80.087880 10.534359 1.082021
-79.532730 12.297785 1.062087
-78.702052 13.978481 1.006919
-78.497867 15.847287 1.031865
-77.967862 17.618263 1.015147
-77.239002 19.329531 0.973000
-76.408324 21.010227 0.917832
-75.650249 22.712723 0.871949
-75.120245 24.483699 0.855231
-73.862641 26.036207 0.745470
-73.085615 27.733013 0.697163
-71.715597 28.686726 0.558081
-70.457993 30.239234 0.448320
-69.200389 31.791742 0.338559
-67.942785 33.344250 0.228798
-66.685181 34.896758 0.119037
-65.427577 36.449266 0.009277
-63.810538 37.328809 -0.161394
-62.552933 38.881317 -0.271155
-60.935894 39.760860 -0.441826
-59.678290 41.313368 -0.551587
-58.061251 42.192910 -0.722257
-56.444211 43.072453 -0.892928
-55.186607 44.624961 -1.002689
-53.403893 45.194313 -1.201435
-51.593093 45.711081 -1.404940
-51.045597 47.449307 -1.424623
-49.068772 47.655228 -1.656263
-47.469575 48.568176 -1.823910
-45.623441 49.018788 -2.033403
-44.154934 50.176427 -2.178903
-42.259021 50.533838 -2.396832
-40.709603 51.539987 -2.556043
-38.732778 51.745908 -2.787683
-37.264272 52.903547 -2.933184
-35.287447 53.109468 -3.164824
-33.814389 54.258585 -3.311095
-31.842115 54.473028 -3.541964
-29.865291 54.678950 -3.773604
-28.396784 55.836588 -3.919104
-26.419959 56.042510 -4.150744
-24.443135 56.248431 -4.382384
-22.466310 56.454353 -4.614024
-20.489485 56.660274 -4.845664
-18.512660 56.866196 -5.077304
-16.535835 57.072117 -5.308943
-14.559011 57.278039 -5.540583
-12.582186 57.483960 -5.772223
-10.605361 57.689882 -6.003863
-8.938647 56.858832 -6.225741
-6.961822 57.064754 -6.457381
-4.984997 57.270675 -6.689021
-3.046436 57.348648 -6.919456
-1.341459 56.645547 -7.142538
0.635366 56.851469 -7.374178
2.444835 56.497772 -7.600550
4.278905 56.226341 -7.827696
6.255730 56.432262 -8.059336
8.155387 56.380144 -8.288546
9.899269 55.807134 -8.512853
11.565983 54.976085 -8.734731
13.232697 54.145035 -8.956609
15.184706 54.267977 -9.187468
16.876236 53.519907 -9.410127
18.480084 52.478644 -9.630025
20.209664 51.857808 -9.853882
21.994744 51.422560 -10.079486
23.752073 50.894518 -10.304216
25.509403 50.366476 -10.528947
27.047452 49.105185 -10.746774
28.804781 48.577143 -10.971504
30.342830 47.315852 -11.189332
31.880878 46.054560 -11.407159
33.638208 45.526518 -11.631889
35.210090 44.378362 -11.850782
36.264040 43.373180 -12.003775
37.964801 42.655980 -12.226725
38.889872 41.219841 -12.375661
40.647202 40.691799 -12.600391
41.571596 39.096889 -12.753446
43.053753 37.805212 -12.965374
43.922255 36.179915 -13.112530
45.460303 34.918624 -13.330357
46.998352 33.657333 -13.548184
48.244403 32.237295 -13.735191
49.389589 30.762420 -13.911551
49.603858 28.781443 -13.989651
50.733078 27.297888 -14.164325
50.931382 25.308231 -14.240740
52.076567 23.833356 -14.417100
53.077868 22.280257 -14.578272
53.420056 20.368824 -14.669874
53.618360 18.379168 -14.746289
53.816665 16.389511 -14.822704
54.014969 14.399855 -14.899118
54.213273 12.410198 -14.975533
54.411577 10.420542 -15.051947
54.033681 8.603894 -15.054680
53.779203 6.750189 -15.073195
52.973672 5.061942 -15.021243
53.146830 3.079836 -15.094442
52.316153 1.399139 -15.039275
52.514457 -0.590517 -15.115690
51.221819 -1.567464 -14.986502
50.795049 -3.369437 -14.982985
50.161810 -5.109416 -14.953065
48.904206 -6.661924 -14.843304
47.646602 -8.214432 -14.733543
46.388998 -9.766940 -14.623783
45.612681 -11.463959 -14.575567
44.512166 -12.923373 -14.482184
42.984350 -13.969967 -14.326633
42.454346 -15.740943 -14.309914
41.193682 -17.287722 -14.199635
39.579702 -18.172994 -14.029483
38.322098 -19.725502 -13.919722
36.788162 -20.760637 -13.763134
35.319656 -21.918276 -13.617633
33.830415 -23.037095 -13.468620
32.382643 -24.233553 -13.326633
30.955772 -25.469146 -13.188188
29.445630 -26.548830 -13.035632
27.721693 -27.228231 -12.846847
26.000298 -27.912390 -12.658492
24.487614 -28.987316 -12.505505
22.870575 -29.866859 -12.334834
21.086460 -30.433589 -12.135851
19.617954 -31.591227 -11.990351
17.660022 -31.832521 -11.761912
16.172623 -32.954787 -11.613211
14.425943 -33.591606 -11.420571
12.727291 -34.318347 -11.236070
10.832429 -34.677725 -11.018320
9.281960 -35.681907 -10.858930
7.813454 -36.839546 -10.713430
5.836629 -37.045467 -10.481790
3.859804 -37.251389 -10.250150
1.882979 -37.457310 -10.018510
-0.093846 -37.663232 -9.786870
-1.565153 -38.815627 -9.640895
-3.539177 -39.026792 -9.409730
-5.516002 -39.232714 -9.178090
-7.492826 -39.438635 -8.946450
-9.469651 -39.644557 -8.714810
-11.446476 -39.850478 -8.483170
-13.423301 -40.056399 -8.251531
-15.400126 -40.262321 -8.019891
-23.209605 -36.362529 -8.366529
-24.674427 -35.202352 -8.160159
-26.654799 -34.993193 -7.917114
-28.414883 -34.377676 -7.689739
-30.099994 -33.623858 -7.467698
-32.080366 -33.414699 -7.224653
-33.620161 -32.392823 -7.012949
-35.525560 -32.045364 -6.775237
-37.505932 -31.836205 -6.532192
-39.486304 -31.627047 -6.289146
-40.951126 -30.466870 -6.082776
-42.417141 -29.308892 -5.876321
-44.395266 -29.095589 -5.633435
-45.861143 -27.937357 -5.426990
-47.325965 -26.777180 -5.220619
-49.306337 -26.568022 -4.977574
-50.849572 -25.552490 -4.765626
-52.463148 -24.666715 -4.548673
-54.216354 -24.038509 -4.321788
-54.961045 -22.677691 -4.196478
-56.567743 -21.779228 -3.980015
-58.032565 -20.619051 -3.773644
-59.437226 -19.347895 -3.571553
-60.686254 -17.789648 -3.380534
-62.299830 -16.903873 -3.163582
-63.891855 -15.978342 -2.948162
-65.162434 -14.459852 -2.755610
-66.411462 -12.901605 -2.564590
-67.502359 -11.859960 -2.406201
-68.657339 -10.447688 -2.230323
-70.158387 -9.354335 -2.021375
-70.678158 -7.578615 -1.912065
-71.928023 -6.584376 -1.735865
-72.844568 -4.978107 -1.583451
-73.625193 -3.792807 -1.458474
-74.215597 -2.038150 -1.341250
-75.322363 -1.001237 -1.181083
-75.619688 0.840820 -1.096696
-76.868716 2.399066 -0.905677
-76.743072 4.367258 -0.868682
-77.560417 6.054239 -0.726031
-77.698774 7.943702 -0.659456
-78.163781 9.735754 -0.556282
-78.009060 11.712617 -0.522545
-78.767146 13.417269 -0.386533
-78.553166 15.411804 -0.359436
-78.339186 17.406339 -0.332339
-78.125207 19.400874 -0.305242
-77.911227 21.395409 -0.278145
-77.227820 23.133033 -0.314143
-76.540304 24.868408 -0.350695
-76.326324 26.862943 -0.323597
-75.906776 28.744974 -0.324131
-74.955401 30.335943 -0.396147
-74.137045 31.999712 -0.450284
-73.252180 33.627080 -0.513361
-71.700539 34.889532 -0.666060
-71.270591 36.765871 -0.667991
-69.930809 38.144270 -0.792213
-68.379167 39.406722 -0.944912
-67.799761 41.201264 -0.966932
-66.598738 42.624736 -1.073320
-64.844089 43.190367 -1.268798
-64.391412 45.054266 -1.273785
-62.720815 45.231572 -1.469455
-61.259524 46.330342 -1.615647
-59.996732 47.134291 -1.745831
-58.264636 47.777336 -1.936557
-56.970692 49.084883 -2.057156
-56.367085 50.593331 -2.089646
-54.482598 50.713299 -2.312485
-52.930957 51.975751 -2.465184
-51.030423 52.040633 -2.691405
-49.549972 53.115499 -2.840527
-48.301689 53.927389 -2.968761
-46.574244 54.586397 -3.158507
-44.896099 55.414627 -3.337864
-43.005646 55.514111 -3.561960
-41.240298 56.043018 -3.759693
-39.688657 57.305470 -3.912392
-37.881293 57.690159 -4.118979
-35.900921 57.481001 -4.362024
-34.178906 58.158647 -4.550625
-32.242404 58.100072 -4.784426
-30.564259 58.928303 -4.963782
-28.882862 59.745369 -5.143824
-26.905743 59.547374 -5.386184
-24.925371 59.338216 -5.629229
-23.159405 59.865001 -5.827093
-21.266854 59.957288 -6.051631
-19.286482 59.748129 -6.294676
-17.306110 59.538971 -6.537722
-15.456892 59.779996 -6.753129
-13.647593 60.158043 -6.960123
-11.667221 59.948884 -7.203169
-9.686849 59.739726 -7.446214
-7.706477 59.530567 -7.689259
-5.726105 59.321409 -7.932304
-3.745733 59.112250 -8.175349
-1.765361 58.903092 -8.418395
0.215011 58.693933 -8.661440
2.195383 58.484775 -8.904485
4.175754 58.275616 -9.147530
5.694136 57.214238 -9.357711
7.620949 56.906281 -9.596946
9.285838 56.115160 -9.817549
11.066143 55.536945 -10.046362
13.046515 55.327787 -10.289407
14.511337 54.167610 -10.495777
16.469241 53.917004 -10.737224
17.956532 52.798274 -10.945193
19.696394 52.145455 -11.171129
21.401726 51.428939 -11.394609
22.923547 50.373905 -11.605034
24.846920 50.059603 -11.844024
26.311743 48.899426 -12.050395
27.776565 47.739249 -12.256765
29.742401 47.503277 -12.498777
30.991429 45.945031 -12.689796
32.605006 45.059256 -12.906748
34.151404 44.049559 -13.118922
35.616226 42.889382 -13.325292
36.351930 41.511985 -13.449963
37.965506 40.626211 -13.666916
39.432438 39.469924 -13.873436
40.828111 38.182189 -14.074888
42.077139 36.623943 -14.265907
43.326166 35.065696 -14.456927
44.575194 33.507449 -14.647946
46.188771 32.621675 -14.864899
46.901635 30.903537 -14.995844
47.957570 29.287707 -15.165228
49.206598 27.729461 -15.356248
50.447473 26.732542 -15.531441
50.610689 24.850491 -15.600801
51.859717 23.292245 -15.791820
52.379488 21.516524 -15.901130
52.899260 19.740804 -16.010440
53.502872 17.990086 -16.129144
53.938802 16.189362 -16.229061
54.106237 14.308570 -16.298893
54.923581 12.621590 -16.441545
55.498116 10.862201 -16.556991
55.526946 8.940075 -16.611293
55.312966 6.945540 -16.638391
55.098986 4.951005 -16.665488
54.885007 2.956470 -16.692585
54.671027 0.961935 -16.719682
54.457047 -1.032600 -16.746779
53.300104 -2.511064 -16.647132
53.086124 -4.505599 -16.674229
52.666576 -6.387630 -16.673696
51.715201 -7.978599 -16.601679
50.558257 -9.457063 -16.502032
49.401314 -10.935528 -16.402386
49.107814 -12.830856 -16.417321
47.361767 -13.426012 -16.223656
46.935929 -15.304600 -16.222277
45.592036 -16.680750 -16.097502
44.622042 -18.261529 -16.022983
42.941823 -18.837026 -15.836692
41.956422 -20.119306 -15.752429
40.333210 -21.016069 -15.581474
39.193038 -21.887127 -15.467771
37.641397 -23.149578 -15.315072
36.089756 -24.412030 -15.162374
35.024436 -25.419992 -15.061270
33.439543 -26.568306 -14.901564
31.887902 -27.830758 -14.748866
30.292229 -28.942071 -14.586889
28.570913 -29.622117 -14.398434
26.805565 -30.151024 -14.200701
25.253924 -31.413476 -14.048003
23.277422 -31.217604 -13.805774
21.599278 -32.045834 -13.626417
19.921133 -32.874064 -13.447060
18.192532 -33.529105 -13.257071
16.262616 -33.493136 -13.024658
14.584471 -34.321366 -12.845302
12.682781 -34.382282 -12.618837
10.925954 -34.940438 -12.422900
9.247810 -35.768668 -12.243543
7.267438 -35.559510 -12.000498
5.621390 -36.497911 -11.827905
3.911148 -37.215970 -11.641785
1.930776 -37.006812 -11.398740
-0.049596 -36.797653 -11.155695
-2.029968 -36.588495 -10.912649
-3.708113 -37.416725 -10.733293
-5.688485 -37.207567 -10.490248
-7.668857 -36.998408 -10.247202
-9.569928 -37.061446 -10.020868
-11.327373 -37.617480 -9.824800
-13.307745 -37.408321 -9.581755
-15.288117 -37.199163 -9.338710
-17.268489 -36.990004 -9.095665
-19.248861 -36.780846 -8.852620
-21.229233 -36.571688 -8.609574
13.239416 -41.574047 76.034003
11.561212 -40.718915 76.047877
9.558683 -40.896057 76.033526
7.556154 -41.073199 76.019175
5.877951 -40.218067 76.033048
4.156027 -39.502090 76.043117
2.197218 -39.540078 76.032570
0.385071 -39.111264 76.034787
-1.385740 -38.550887 76.040602
-3.161719 -38.006956 76.045966
-5.156696 -38.160061 76.032272
-6.842452 -37.328967 76.045488
-7.790500 -35.955418 76.076307
-9.615366 -35.567088 76.077417
-10.653637 -34.480703 76.100384
-12.388281 -33.805209 76.109346
-14.066485 -32.950077 76.123219
-15.058253 -31.715683 76.150233
-16.599732 -30.425378 76.176005
-17.987171 -29.054711 76.204604
-19.004204 -27.490807 76.239998
-20.209415 -26.635360 76.256189
-20.959523 -24.932202 76.296481
-21.822516 -23.287936 76.334702
-22.660816 -21.630788 76.373375
-23.548503 -19.999404 76.411143
-23.975242 -18.127547 76.457368
-24.152694 -16.125639 76.508166
-24.330145 -14.123730 76.558965
-24.507596 -12.121821 76.609763
-23.652401 -10.444264 76.657234
-23.624839 -8.506749 76.707372
-22.974658 -6.764798 76.755503
-22.504172 -4.966404 76.804214
-21.943838 -3.196232 76.852635
-21.441719 -1.407774 76.901243
-20.469010 -0.334199 76.933700
-19.679624 1.364028 76.981383
-18.263991 2.298482 77.012413
-16.619306 3.160991 77.042704
-15.328781 4.701813 77.088772
-14.768447 6.471985 77.137193
-13.094913 7.279241 77.166199
-11.479077 8.197003 77.197776
-9.834391 9.059512 77.228068
-8.543866 10.600334 77.274136
-6.899181 11.462843 77.304427
-5.085702 12.002066 77.327200
-3.584031 13.138487 77.363862
-1.965125 14.050370 77.395302
-0.079832 14.452050 77.414875
1.922697 14.629192 77.429226
3.677252 15.281272 77.454624
5.426897 15.942755 77.480240
7.429426 16.119897 77.494591
9.431955 16.297040 77.508942
11.434484 16.474182 77.523294
13.317320 16.880567 77.542977
14.938683 17.787745 77.574307
16.724597 17.275435 77.569807
18.619416 17.109755 77.574785
20.621945 17.286897 77.589136
22.624474 17.464039 77.603487
24.302678 16.608907 77.589614
26.305207 16.786050 77.603965
28.266795 16.832885 77.614753
29.985940 16.108060 77.604443
31.808418 15.712131 77.603125
33.666672 15.430070 77.604920
35.350041 14.591377 77.591496
37.120852 14.031000 77.585682
38.701284 12.864675 77.563300
40.433143 12.180319 77.554096
42.203954 11.619942 77.548281
43.745433 10.329637 77.522509
45.414099 9.444148 77.507806
47.092303 8.589016 77.493932
48.150049 7.564617 77.472660
49.691528 6.274312 77.446888
51.233007 4.984007 77.421116
52.096000 3.339741 77.382895
53.548112 2.002814 77.355484
54.500472 0.405170 77.318903
54.862538 -1.500426 77.271491
55.999513 -3.001758 77.238298
56.176964 -5.003667 77.187499
56.595473 -6.879817 77.141123
57.491391 -8.506907 77.103507
57.668842 -10.508816 77.052708
57.136347 -12.287732 77.004198
56.991098 -14.188282 76.954439
56.745871 -16.057428 76.905003
56.185537 -17.827601 76.856582
54.895012 -19.368422 76.810514
54.334679 -21.138595 76.762093
53.747770 -22.900420 76.713758
52.483820 -24.449589 76.667604
51.193295 -25.990411 76.621536
49.902770 -27.531232 76.575468
48.612246 -29.072054 76.529401
46.967560 -29.934563 76.499109
45.677035 -31.475384 76.453041
44.032350 -32.337893 76.422750
42.741825 -33.878715 76.376682
40.773059 -34.120521 76.360827
39.452455 -35.603733 76.316099
37.769718 -36.393363 76.287502
35.808924 -36.650439 76.271292
34.265518 -37.706926 76.236489
32.262989 -37.884068 76.222138
30.761319 -39.020489 76.185475
28.758790 -39.197631 76.171124
26.877176 -39.606359 76.151387
25.254590 -40.511194 76.120111
23.252061 -40.688336 76.105760
21.249532 -40.865478 76.091408
19.247003 -41.042620 76.077057
17.244474 -41.219763 76.062706
15.241945 -41.396905 76.048355
7.916857 -42.670160 74.588135
6.425165 -41.517183 74.610606
4.422404 -41.317960 74.605967
2.419642 -41.118736 74.601328
0.646861 -40.490326 74.608888
-1.074811 -39.766536 74.619160
-2.988138 -39.400409 74.619265
-4.569265 -38.414336 74.636992
-6.060956 -37.261359 74.659463
-7.552648 -36.108382 74.681934
-9.173990 -35.197359 74.697528
-10.810799 -34.315198 74.712301
-12.447607 -33.433037 74.727074
-14.030484 -32.450228 74.744708
-15.359843 -30.994309 74.775791
-16.996652 -30.112148 74.790564
-18.272079 -28.555581 74.824507
-19.547506 -26.999015 74.858450
-20.090336 -25.221085 74.901684
-21.403784 -24.241216 74.920558
-22.269975 -22.560994 74.959691
-23.077811 -20.863139 74.999564
-23.914825 -19.174100 75.039067
-23.898466 -17.227204 75.089392
-24.552803 -15.482967 75.131212
-24.984127 -13.671344 75.175859
-25.190781 -11.791835 75.223356
-24.991746 -9.789741 75.275998
-24.792711 -7.787647 75.328640
-24.593675 -5.785553 75.381282
-24.050905 -3.967563 75.430851
-23.168667 -2.331391 75.477386
-22.088322 -0.801324 75.522150
-21.404190 0.940953 75.570455
-19.847285 2.215775 75.610959
-18.965047 3.851947 75.657494
-17.408141 5.126769 75.697998
-16.322528 6.654014 75.742715
-14.747471 7.305373 75.767217
-13.796638 8.714765 75.808234
-12.086800 9.483977 75.836436
-10.308368 10.026409 75.859120
-8.529936 10.568841 75.881804
-6.751503 11.111273 75.904488
-5.035974 11.861669 75.932232
-3.416165 12.928527 75.967676
-1.657023 13.534733 75.991912
0.140699 14.013391 76.013045
2.035214 14.172042 76.026391
3.724690 15.008574 76.056231
5.727452 14.809350 76.060870
7.475955 15.450730 76.085962
9.419689 15.446659 76.095349
11.422451 15.247435 76.099988
13.425213 15.048211 76.104627
15.427974 14.848988 76.109267
17.430736 14.649764 76.113906
19.433498 14.450541 76.118545
21.436260 14.251317 76.123184
23.439021 14.052094 76.127823
25.441783 13.852870 76.132462
27.444545 13.653646 76.137101
28.936236 12.500670 76.114630
30.938998 12.301446 76.119269
32.430690 11.148469 76.096798
34.433451 10.949246 76.101437
36.040542 10.011625 76.085088
37.927905 9.597046 76.083605
39.314159 8.247303 76.055541
40.911288 7.291092 76.038663
42.587776 6.482980 76.025995
43.894671 4.985139 75.993721
45.500011 4.044253 75.977278
46.775439 2.487686 75.943335
48.369745 1.526208 75.926308
49.687674 0.048958 75.894619
50.963102 -1.507608 75.860676
52.045496 -3.122502 75.824285
52.781359 -4.842105 75.783499
54.056787 -6.398671 75.749556
54.599617 -8.176601 75.706322
55.393550 -9.878657 75.666273
55.685277 -11.732461 75.619855
56.031528 -13.569790 75.574128
55.832493 -15.571883 75.521486
55.848574 -17.508977 75.471572
56.470471 -19.263016 75.429341
55.661048 -20.938188 75.382156
55.118277 -22.756178 75.332586
54.919242 -24.758271 75.279945
53.766083 -26.249339 75.235832
53.481430 -28.205576 75.183955
51.924524 -29.480398 75.143451
51.042286 -31.116570 75.096917
49.485381 -32.391392 75.056413
47.928475 -33.666214 75.015909
46.371570 -34.941036 74.975405
44.814664 -36.215857 74.934901
43.036232 -36.758289 74.912217
41.479326 -38.033111 74.871713
39.770804 -38.806672 74.843406
38.081328 -39.643204 74.813566
36.365556 -40.392797 74.785841
34.702377 -41.316268 74.753886
32.699615 -41.117044 74.749247
31.010139 -41.953576 74.719407
29.251827 -42.562526 74.695104
27.317902 -42.590885 74.684928
25.628427 -43.427417 74.655088
23.625665 -43.228193 74.650449
21.916571 -43.999864 74.622187
19.933427 -43.865502 74.615970
17.930666 -43.666278 74.611331
15.927904 -43.467054 74.606692
13.925142 -43.267831 74.602052
11.922381 -43.068607 74.597413
9.919619 -42.869384 74.592774
-12.490488 -35.920745 -21.395851
-13.983447 -34.799129 -21.200559
-15.966812 -34.641676 -20.966999
-17.950176 -34.484224 -20.733439
-19.933541 -34.326771 -20.499878
-21.916906 -34.169318 -20.266318
-23.409865 -33.047702 -20.071026
-25.393230 -32.890249 -19.837466
-27.376594 -32.732796 -19.603906
-28.943499 -31.756561 -19.402843
-30.852918 -31.453727 -19.175053
-32.836283 -31.296275 -18.941493
-34.329242 -30.174658 -18.746200
-36.178889 -29.754308 -18.523074
-37.805566 -28.895589 -18.317347
-39.449814 -28.071416 -18.110249
-41.085277 -27.229969 -17.903837
-42.774849 -26.494904 -17.693202
-44.356203 -25.547077 -17.491012
-45.991666 -24.705630 -17.284599
-47.744133 -24.094219 -17.069057
-49.262592 -23.022738 -16.871774
-51.220457 -22.815150 -16.640204
-52.533518 -21.339845 -16.458949
-53.822212 -19.816632 -16.279596
-55.208929 -18.486138 -16.092593
-56.746369 -17.451973 -15.893830
-58.381832 -16.610527 -15.687417
-59.687807 -15.121290 -15.506715
-61.614333 -14.915083 -15.278814
-62.217849 -13.168066 -15.174744
-63.586718 -11.802483 -14.989134
-64.418402 -10.567052 -14.868483
-65.707096 -9.043839 -14.689129
-66.995790 -7.520626 -14.509776
-67.907650 -6.442824 -14.382868
-69.196344 -4.919612 -14.203515
-70.485038 -3.396399 -14.024162
-71.773732 -1.873186 -13.844808
-72.379611 -0.126941 -13.740478
-72.903914 1.645950 -13.645111
-74.151560 2.614071 -13.481310
-74.380864 4.483320 -13.418355
-74.945955 6.242888 -13.318507
-75.715591 7.935644 -13.196184
-75.554715 9.932339 -13.176100
-76.417168 11.594778 -13.043580
-76.256292 13.591473 -13.023496
-76.324202 15.513439 -12.978274
-76.957869 17.250607 -12.870891
-76.796993 19.247303 -12.850807
-76.636117 21.243998 -12.830723
-76.475240 23.240694 -12.810640
-76.314364 25.237389 -12.790556
-76.153488 27.234084 -12.770472
-75.035811 28.739327 -12.871130
-74.874935 30.736022 -12.851046
-73.757258 32.241265 -12.951705
-73.524529 34.201054 -12.940688
-72.478704 35.743203 -13.032280
-71.845235 37.497155 -13.071834
-70.329028 38.797696 -13.222784
-70.082474 40.750383 -13.213513
-68.416537 41.365989 -13.395167
-67.576890 43.014040 -13.460740
-66.737244 44.662090 -13.526313
-65.221036 45.962631 -13.677264
-63.704829 47.263172 -13.828214
-62.188622 48.563713 -13.979164
-60.672415 49.864254 -14.130115
-59.156208 51.164795 -14.281065
-57.461862 51.909369 -14.463517
-56.129384 53.160721 -14.594070
-54.817751 53.958311 -14.731014
-53.301544 55.258852 -14.881965
-51.552138 55.831585 -15.074153
-49.802733 56.404318 -15.266340
-48.286526 57.704859 -15.417291
-46.537121 58.277591 -15.609479
-44.813244 58.929997 -15.797153
-43.271509 60.150865 -15.952617
-41.506098 60.673644 -16.147636
-39.772699 61.296331 -16.336993
-38.023294 61.869063 -16.529181
-36.215587 62.259837 -16.731679
-34.524484 63.014529 -16.913557
-32.578649 62.974208 -17.140480
-30.925076 63.846031 -17.315722
-29.043071 64.004919 -17.531358
-27.288138 64.560402 -17.724524
-25.311063 64.422577 -17.956972
-23.651201 65.274772 -18.133325
-21.667836 65.117320 -18.366885
-20.014263 65.989143 -18.542127
-18.030898 65.831690 -18.775687
-16.047534 65.674237 -19.009247
-14.348237 66.403357 -19.192574
-12.410596 66.388608 -19.418049
-10.427231 66.231155 -19.651609
-8.443866 66.073702 -19.885169
-6.460502 65.916249 -20.118729
-4.477137 65.758797 -20.352289
-2.493772 65.601344 -20.585849
-0.703214 66.045638 -20.785314
1.143165 66.315714 -20.994651
2.636125 65.194098 -21.189943
4.619489 65.036645 -21.423504
6.602854 64.879193 -21.657064
8.586219 64.721740 -21.890624
10.216584 63.870272 -22.096639
12.062543 63.442671 -22.319477
14.045907 63.285218 -22.553037
15.538867 62.163602 -22.748329
17.522231 62.006149 -22.981889
19.434206 61.708339 -23.209879
20.998555 60.727080 -23.410742
22.491514 59.605464 -23.606035
24.474879 59.448011 -23.839595
25.976057 58.342554 -24.035529
27.951203 58.168942 -24.268448
29.444162 57.047326 -24.463740
30.937122 55.925710 -24.659033
32.864678 55.658535 -24.888238
34.413446 54.646641 -25.087886
35.788835 53.293876 -25.274004
37.399364 52.403409 -25.478471
39.059761 51.610983 -25.686829
40.695224 50.769537 -25.893242
41.983918 49.246324 -26.072595
43.619381 48.404878 -26.279007
44.908075 46.881665 -26.458361
46.543538 46.040219 -26.664773
47.842032 45.088706 -26.834162
48.763072 43.476521 -26.972515
50.379554 42.597758 -27.177447
51.668248 41.074545 -27.356800
52.956942 39.551333 -27.536154
54.245636 38.028120 -27.715507
55.534330 36.504907 -27.894860
56.099421 34.745339 -27.994709
57.653009 33.742922 -28.194732
58.299975 32.144324 -28.300970
58.865066 30.384756 -28.400818
60.153760 28.861544 -28.580172
60.718851 27.101976 -28.680020
61.283941 25.342407 -28.779869
62.057123 23.650809 -28.902581
62.919576 21.988371 -29.035101
62.979214 20.063703 -29.079414
63.621153 18.329237 -29.187706
64.109395 16.544567 -29.279111
64.322730 14.670103 -29.340311
64.161854 12.673407 -29.360394
64.000978 10.676712 -29.380478
63.840102 8.680017 -29.400562
63.679226 6.683321 -29.420646
63.518350 4.686626 -29.440730
62.400672 3.181383 -29.340071
62.239796 1.184688 -29.360155
62.012593 -0.777939 -29.371869
60.961243 -2.317250 -29.279581
59.843566 -3.822493 -29.178922
59.493653 -5.722091 -29.175151
58.565013 -7.324431 -29.098348
57.137799 -8.670682 -28.958627
56.329658 -10.334916 -28.897031
55.225307 -11.238975 -28.786244
54.141347 -12.761536 -28.689841
53.023669 -14.266779 -28.589182
52.652450 -16.014852 -28.579992
50.956962 -16.755860 -28.397338
49.440755 -18.056401 -28.246388
47.924548 -19.356942 -28.095437
46.367949 -20.531422 -27.937344
44.658936 -21.230216 -27.752299
43.819289 -22.878266 -27.686726
42.069884 -23.450999 -27.494538
40.553677 -24.751540 -27.343588
38.804272 -25.324273 -27.151400
37.054867 -25.897006 -26.959212
35.538659 -27.197546 -26.808261
34.022452 -28.498087 -26.657311
32.065758 -28.423874 -26.428467
30.412185 -29.295697 -26.253225
28.758612 -30.167520 -26.077984
27.024832 -30.789019 -25.888559
25.451466 -31.911167 -25.727501
23.526022 -31.934484 -25.504183
21.814528 -32.625537 -25.318699
20.160955 -33.497361 -25.143458
18.277807 -33.652683 -24.927619
16.524017 -34.211731 -24.734656
14.545799 -34.070340 -24.502006
13.443052 -35.583252 -24.403232
11.813473 -35.843967 -24.218909
10.320514 -34.722351 -24.023617
8.385353 -34.715341 -23.798581
6.683576 -35.436721 -23.614815
4.700211 -35.279268 -23.381255
3.046638 -36.151092 -23.206014
1.063273 -35.993639 -22.972453
-0.920091 -35.836186 -22.738893
-2.810671 -35.968314 -22.521741
-4.557029 -36.550557 -22.330092
-6.540394 -36.393104 -22.096532
-8.523758 -36.235651 -21.862972
-10.507123 -36.078198 -21.629411
