ply
format ascii 1.0
element vertex 1520
property float x
property float y
property float z
end_header
-72.414604 65.188211 23.042041
-71.651223 66.876169 23.016941
-70.382961 68.348235 22.953185
-70.359905 70.352760 22.984768
-70.167739 72.284973 23.003403
-69.321027 73.937298 22.971922
-68.305206 75.517309 22.927494
-67.982264 77.393602 22.936116
-66.551781 78.796301 22.859939
-65.257741 80.257345 22.794209
-65.094797 82.202054 22.815081
-63.664314 83.604753 22.738904
-62.233832 85.007453 22.662727
-61.194455 86.577392 22.616495
-60.776848 88.413205 22.617869
-59.346365 89.815905 22.541692
-57.915882 91.218605 22.465515
-57.131169 92.897440 22.438782
-56.115347 94.477452 22.394354
-55.028416 96.027057 22.344481
-53.597933 97.429756 22.268304
-52.789148 98.931924 22.236973
-51.154920 99.825320 22.138207
-50.426428 101.528196 22.115778
-48.711907 102.220884 22.008110
-47.966467 103.881393 21.983802
-46.268895 104.616447 21.878013
-45.354282 105.854074 21.834949
-43.825882 107.012011 21.747916
-42.157757 107.820675 21.645392
-40.980874 109.235679 21.587040
-39.947262 110.797464 21.541074
-37.953828 110.792950 21.402483
-36.523345 112.195650 21.326306
-35.092862 113.598349 21.250129
-33.152523 113.726557 21.117425
-31.663820 114.983725 21.034793
-30.233337 116.386424 20.958616
-28.357736 116.676458 20.833089
-26.520258 117.061787 20.711789
-25.745551 118.649139 20.684236
-23.745598 118.628330 20.544923
-21.794648 118.730014 20.411042
-20.364166 120.132714 20.334865
-18.549121 120.574123 20.216052
-16.651086 120.808077 20.088038
-14.950907 121.536615 19.981960
-12.950954 121.515806 19.842647
-11.223485 122.176128 19.733543
-9.352740 122.478298 19.608555
-7.352787 122.457490 19.469241
-5.352835 122.436682 19.329928
-3.352882 122.415873 19.190614
-1.352930 122.395065 19.051301
0.647023 122.374256 18.911987
2.646975 122.353448 18.772674
4.646927 122.332640 18.633360
6.646880 122.311831 18.494047
8.468401 121.872764 18.360207
10.222095 121.274704 18.228449
12.165058 121.120306 18.090884
13.797310 120.237576 17.962851
15.797263 120.216768 17.823538
17.559893 119.639654 17.691505
19.258071 118.911460 17.561450
20.947740 118.163321 17.431656
22.947693 118.142513 17.292342
24.522955 117.126193 17.166058
26.098218 116.109874 17.039774
28.049261 115.974418 16.901961
29.673433 115.072747 16.774176
31.248696 114.056427 16.647892
33.143795 113.789833 16.511795
34.541672 112.357706 16.390953
35.974484 111.007470 16.269039
37.974436 110.986662 16.129726
38.927478 109.887623 16.045308
40.325355 108.455496 15.924466
41.723232 107.023369 15.803624
43.266458 105.931954 15.678322
45.119587 105.566979 15.543513
46.517464 104.134852 15.422671
47.915341 102.702724 15.301829
49.567509 101.866677 15.173185
51.142771 100.850358 15.046901
52.709574 99.814208 14.920877
53.668844 98.205395 14.827587
54.859531 96.811970 14.721782
56.494778 95.936260 14.593658
57.892655 94.504132 14.472815
58.594818 92.791749 14.395676
59.270953 91.068881 14.320172
61.142476 90.747022 14.184799
61.958581 89.326992 14.104582
62.647731 87.609367 14.028260
64.045608 86.177239 13.907418
65.443484 84.745112 13.786576
66.132634 83.027486 13.710254
67.566966 81.680814 13.588294
68.519961 80.581665 13.503877
69.409682 78.944837 13.414956
70.388918 77.344067 13.320412
71.296136 75.714286 13.230392
72.354127 74.728204 13.140551
73.333364 73.127434 13.046007
74.398041 71.610446 12.946913
75.298573 70.511571 12.866146
76.051212 68.819521 12.785836
76.254753 66.906276 12.740019
77.512356 65.578467 12.630651
78.219962 64.290412 12.560159
79.108110 62.652950 12.471336
79.797259 60.935324 12.395015
81.157671 59.488104 12.276526
81.134615 57.483579 12.244943
81.864707 55.782446 12.166049
83.093087 54.282040 12.055855
83.070031 52.277515 12.024272
83.932154 50.629568 11.937084
85.035240 49.661651 11.844411
85.012184 47.657126 11.812828
85.591175 45.895125 11.743426
86.977393 45.041262 11.632967
86.954337 43.036737 11.601384
87.250196 41.160681 11.549768
87.910518 39.431442 11.475257
87.887462 37.426917 11.443674
88.608916 35.722305 11.365323
89.852671 34.811053 11.263813
89.829615 32.806528 11.232231
89.806559 30.802002 11.200648
90.785795 29.201233 11.106103
90.762739 27.196708 11.074520
90.917930 25.263986 11.031740
91.718919 23.591413 10.948393
91.695863 21.586888 10.916810
92.276650 19.825610 10.847295
92.652044 17.981593 10.790683
92.628988 15.977068 10.759100
92.605932 13.972542 10.727517
92.582876 11.968017 10.695934
92.559820 9.963491 10.664351
93.539056 8.362722 10.569807
93.516000 6.358197 10.538224
93.492944 4.353671 10.506641
93.469888 2.349146 10.475058
93.446832 0.344621 10.443475
93.423776 -1.659905 10.411892
93.400720 -3.664430 10.380309
93.377664 -5.668955 10.348726
93.354608 -7.673481 10.317143
93.331552 -9.678006 10.285560
93.308496 -11.682532 10.253977
93.285440 -13.687057 10.222394
93.183829 -15.657992 10.196826
92.246562 -17.271594 10.235240
92.223506 -19.276120 10.203657
92.200450 -21.280645 10.172074
93.485526 -22.581515 10.061243
95.485479 -22.602323 9.921929
97.112513 -21.690945 9.823961
98.097664 -20.629643 9.773076
99.839564 -20.005394 9.662373
101.554084 -19.312706 9.554705
102.984567 -17.910006 9.478528
104.892403 -17.700550 9.349427
106.697647 -17.234643 9.231701
108.490618 -16.738058 9.115335
110.490570 -16.758866 8.976021
112.490523 -16.779675 8.836708
114.490475 -16.800483 8.697394
116.490428 -16.821292 8.558081
118.490380 -16.842100 8.418767
120.098249 -17.781988 8.291483
121.640905 -18.874738 8.166199
123.494605 -19.238377 8.031372
124.892481 -20.670505 7.910530
126.590659 -21.398700 7.780475
127.988536 -22.830827 7.659633
129.084441 -23.801637 7.567411
130.508142 -24.966574 7.449198
131.365314 -26.290341 7.367721
132.028886 -28.018270 7.293006
132.743612 -29.725593 7.215078
134.141489 -31.157720 7.094236
134.966595 -32.820578 7.009373
134.943539 -34.825103 6.977791
136.208937 -36.310598 6.865270
136.902012 -38.026642 6.788702
136.878956 -40.031167 6.757119
137.858192 -41.631937 6.662575
137.835136 -43.636462 6.630992
137.812080 -45.640987 6.599409
137.789024 -47.645513 6.567826
137.765968 -49.650038 6.536243
137.742912 -51.654563 6.504660
137.719856 -53.659089 6.473077
137.258471 -55.476182 6.475055
136.680978 -57.243626 6.485922
136.657922 -59.248151 6.454339
136.634866 -61.252677 6.422756
136.611810 -63.257202 6.391173
135.721986 -64.891091 6.425955
134.993495 -66.593968 6.448384
134.557111 -68.421751 6.448447
134.238502 -70.299896 6.439493
133.518234 -72.006289 6.461293
132.781519 -73.705648 6.484351
132.053027 -75.408524 6.506780
131.324535 -77.111401 6.529209
130.447713 -78.750849 6.562995
129.165561 -80.216976 6.627815
127.735078 -81.619676 6.703992
127.400249 -83.490885 6.696280
126.278094 -85.025428 6.748850
124.847611 -86.428128 6.825027
123.417128 -87.830828 6.901204
122.688637 -89.533704 6.923632
121.258154 -90.936404 6.999809
119.631478 -91.848680 7.097738
118.310703 -93.116266 7.168529
117.100620 -94.024655 7.237574
115.670137 -95.427355 7.313751
113.955616 -96.120042 7.421419
113.210535 -97.781450 7.445687
111.228566 -97.805594 7.583007
109.612321 -98.743942 7.679779
108.083562 -99.900981 7.766852
106.415796 -100.710543 7.869337
104.415844 -100.689735 8.008650
102.817582 -101.673035 8.103429
100.817629 -101.652227 8.242742
98.817677 -101.631418 8.382056
96.817724 -101.610610 8.521369
94.817772 -101.589801 8.660683
92.817819 -101.568993 8.799996
90.956135 -101.224072 8.935068
89.558258 -99.791945 9.055910
87.860080 -99.063750 9.185965
86.161902 -98.335555 9.316020
84.516816 -97.482908 9.444447
83.065847 -96.175233 9.566917
81.370923 -95.445728 9.696768
80.678520 -93.729412 9.773294
79.280643 -92.297285 9.894136
78.433214 -90.643420 9.980401
77.902345 -88.862033 10.046780
76.504468 -87.429906 10.167622
75.815319 -85.712280 10.243944
75.518561 -83.836586 10.295617
74.437021 -82.277028 10.396587
73.560089 -80.635048 10.484705
73.583145 -78.630522 10.516288
72.603908 -77.029753 10.610832
71.680424 -75.406525 10.701874
69.704094 -75.330342 10.840463
68.615546 -76.835845 10.891178
68.226161 -78.683726 10.887644
66.795678 -80.086425 10.963821
65.081157 -80.779113 11.071489
63.650674 -82.181813 11.147666
62.922182 -83.884689 11.170094
61.474346 -85.244011 11.248195
59.777178 -85.980076 11.353939
58.346695 -87.382776 11.430116
56.679559 -88.193912 11.532531
55.499243 -89.605398 11.591179
54.473200 -91.181039 11.636390
52.870802 -92.154002 11.731627
51.044158 -92.566414 11.851726
49.329637 -93.259102 11.959394
48.454813 -94.899405 11.993027
47.062092 -96.093283 12.070037
45.062139 -96.072474 12.209351
43.457583 -97.040041 12.304827
42.449954 -98.045155 12.358204
40.450001 -98.024347 12.497517
39.016012 -99.418280 12.574083
37.253477 -99.990947 12.687074
35.253525 -99.970139 12.826388
33.588411 -100.786331 12.928578
32.641339 -101.942820 12.975241
30.641387 -101.922011 13.114554
28.862802 -102.454558 13.229325
27.043172 -102.884503 13.348646
25.043220 -102.863695 13.487960
23.435201 -103.822608 13.583820
21.445005 -103.826187 13.722052
19.445052 -103.805378 13.861366
17.445100 -103.784570 14.000679
15.445148 -103.763762 14.139993
13.445195 -103.742953 14.279306
11.445243 -103.722145 14.418620
-7.207000 -57.529845 46.181180
-8.792828 -56.548443 46.383528
-10.785816 -56.569713 46.564842
-12.609003 -56.172828 46.754928
-14.364633 -55.609580 46.948503
-16.357622 -55.630850 47.129817
-18.350610 -55.652120 47.311131
-20.291517 -55.545133 47.495135
-21.708310 -54.147466 47.706215
-23.515255 -53.710585 47.897140
-25.508244 -53.731855 48.078454
-27.110313 -52.790450 48.279963
-28.679900 -51.769051 48.483150
-30.519712 -51.413108 48.672377
-32.224411 -50.724437 48.868584
-33.844544 -49.827516 49.069160
-35.136646 -49.134884 49.227804
-36.432856 -47.858486 49.420785
-38.132599 -47.581065 49.592615
-39.054803 -45.972284 49.770674
-41.014157 -45.910726 49.953725
-41.761602 -44.295041 50.116178
-43.134001 -43.464530 50.290199
-44.197792 -41.951397 50.475663
-45.885194 -41.220131 50.672764
-46.599389 -39.522563 50.836935
-48.304088 -38.833892 51.033142
-49.720881 -37.436225 51.244223
-51.137674 -36.038559 51.455303
-52.145000 -34.466112 51.639045
-53.317579 -33.063787 51.828028
-54.150449 -31.903396 51.971820
-54.984956 -30.257183 52.144024
-56.401749 -28.859516 52.355104
-57.163302 -27.182163 52.522438
-57.830138 -25.464380 52.683447
-58.544332 -23.766811 52.847618
-59.182530 -22.036804 53.006716
-59.972721 -20.371675 53.175961
-60.197474 -18.465191 53.307454
-60.208133 -16.467321 53.424654
-61.212417 -14.893577 53.608193
-61.223077 -12.895708 53.725392
-61.233736 -10.897839 53.842592
-61.244396 -8.899969 53.959791
-61.255055 -6.902100 54.076991
-61.265715 -4.904231 54.194190
-61.276374 -2.906362 54.311390
-61.287034 -0.908493 54.428589
-61.297693 1.089376 54.545788
-60.392996 2.717751 54.557650
-60.320975 4.682246 54.665334
-60.331635 6.680115 54.782534
-59.716435 8.425349 54.827710
-59.354916 10.272984 54.902079
-58.367539 11.867984 54.904426
-58.334155 13.848075 55.016557
-57.390821 15.460853 55.023972
-57.401480 17.458723 55.141171
-56.414102 19.053723 55.143517
-56.255876 20.983419 55.241282
-54.609999 21.830376 55.139795
-53.448849 23.253950 55.116252
-53.166720 25.133632 55.199758
-51.765002 26.561379 55.154422
-51.069003 28.273997 55.190300
-49.667284 29.701744 55.144965
-48.745761 30.877899 55.128977
-47.521463 32.239178 55.096026
-47.179911 33.889590 55.160752
-45.586691 34.861804 55.071375
-45.554247 36.842275 55.183614
-43.899253 37.584270 55.075187
-43.203254 39.296889 55.111065
-41.801536 40.724635 55.065729
-40.314515 41.949471 55.000777
-38.702661 42.877358 54.907115
-37.300942 44.305105 54.861779
-35.899224 45.732852 54.816444
-34.654875 47.224123 54.789218
-33.439794 48.012799 54.723801
-31.808911 48.895423 54.625763
-30.407193 50.323170 54.580427
-28.714267 51.058210 54.468121
-27.712552 52.639067 54.468331
-26.147260 53.082259 54.350738
-24.733519 54.256652 54.289563
-23.628285 55.220565 54.244401
-22.005077 56.121445 54.148128
-20.233972 56.670517 54.017843
-19.438070 58.145494 54.030745
-17.840816 59.108112 53.940441
-15.869906 59.181901 53.764205
-14.294730 60.197038 53.678978
-12.820509 61.311767 53.608793
-11.727723 62.221087 53.561595
-10.060751 63.017865 53.455258
-8.363595 63.742842 53.341979
-6.584383 64.272631 53.209829
-4.969281 65.192794 53.115420
-3.272125 65.917771 53.002141
-1.441043 66.324175 52.858062
0.134133 67.339312 52.772835
2.127121 67.360582 52.591522
4.107379 67.412135 52.413136
5.695285 68.396989 52.324981
7.270461 69.412126 52.239755
9.263450 69.433395 52.058441
11.256438 69.454665 51.877128
12.888600 70.334247 51.778796
14.824602 70.491072 51.610587
16.817591 70.512342 51.429274
18.392767 71.527479 51.344047
20.385755 71.548749 51.162734
22.378744 71.570018 50.981420
24.371732 71.591288 50.800106
25.950450 72.597999 50.714065
27.939897 72.627695 50.533566
29.932885 72.648965 50.352253
31.925874 72.670234 50.170939
33.918862 72.691504 49.989625
35.911851 72.712774 49.808312
37.904840 72.734044 49.626998
39.897828 72.755313 49.445685
41.890817 72.776583 49.264371
43.883805 72.797853 49.083058
45.876410 72.818178 48.901724
47.462622 71.837720 48.699396
49.455611 71.858990 48.518082
51.278414 71.461161 48.327977
53.034427 70.898858 48.134421
54.687812 70.083820 47.935563
56.613244 69.938725 47.750759
58.606232 69.959995 47.569445
60.192061 68.978593 47.367097
62.185049 68.999862 47.185784
63.787119 68.058458 46.984275
65.491818 67.369787 46.788068
67.349694 67.058328 46.599774
68.901216 65.992445 46.395654
70.521350 65.095524 46.195078
72.022709 63.906107 45.988366
73.693006 63.132720 45.790382
74.812524 62.264300 45.637319
76.281318 61.163690 45.438756
77.808478 60.710481 45.272509
78.853100 59.153954 45.086276
80.455458 58.213258 44.884782
81.271994 56.767715 44.725898
82.976693 56.079044 44.529691
84.393486 54.681378 44.318611
85.810279 53.283711 44.107530
87.394094 52.297350 43.905078
87.820642 50.723092 43.774427
88.991901 49.319423 43.585488
89.945467 48.211331 43.433683
90.830374 46.586631 43.258114
91.373856 44.816195 43.105340
92.835823 44.023915 42.925339
93.792749 42.429956 42.744962
93.850767 40.452301 42.624601
94.855051 38.878557 42.441061
95.859335 37.304812 42.257522
95.946927 35.339781 42.135186
96.874279 33.733198 41.956783
96.884939 31.735329 41.839584
96.895598 29.737460 41.722385
96.906258 27.739591 41.605185
97.910542 26.165846 41.421646
97.921201 24.167977 41.304446
97.931861 22.170108 41.187247
97.942520 20.172239 41.070048
97.953180 18.174370 40.952848
97.963839 16.176501 40.835649
97.060082 14.547746 40.823679
96.987121 12.583631 40.716103
96.997781 10.585762 40.598903
96.383521 8.840149 40.553619
96.021062 6.992893 40.479358
95.033685 5.397893 40.477011
95.044344 3.400024 40.359812
95.010961 1.419933 40.247681
94.067626 -0.192846 40.240266
93.618962 -2.005304 40.175925
92.922962 -3.717922 40.140047
92.103530 -5.380715 40.118374
91.286805 -6.562368 40.124442
89.833807 -7.868135 40.181571
89.138277 -9.580943 40.145639
88.146369 -10.590601 40.177759
87.160402 -12.186170 40.175250
86.048651 -13.730966 40.187217
85.185647 -15.376170 40.170558
84.430735 -16.618803 40.167417
83.207771 -17.981398 40.200169
82.864885 -19.630494 40.135643
81.272058 -20.603644 40.224928
80.576059 -22.316263 40.189051
79.174341 -23.744009 40.234386
77.772622 -25.171756 40.279722
76.991321 -26.681463 40.263461
75.084028 -26.906580 40.425067
74.301353 -28.584211 40.399164
72.690872 -29.344175 40.502468
71.857307 -30.729561 40.498227
70.002277 -31.078999 40.647814
69.290300 -32.753610 40.615610
67.609121 -33.516594 40.725215
66.723293 -34.777658 40.732993
65.215965 -35.954188 40.802616
63.572941 -36.807933 40.903447
61.997765 -37.823070 40.988673
60.419933 -38.831888 41.074511
59.430758 -39.847119 41.106056
57.731339 -40.566712 41.219856
56.329620 -41.994459 41.265191
54.705231 -42.892530 41.361736
53.130056 -43.907667 41.446963
51.238150 -44.169388 41.605029
49.836432 -45.597134 41.650365
48.404529 -46.953079 41.702642
46.442119 -47.047087 41.876924
44.836364 -47.989486 41.969183
43.261189 -49.004623 42.054409
41.350649 -49.222016 42.216762
39.693024 -50.041030 42.320949
38.117849 -51.056167 42.406176
36.259179 -51.396945 42.556599
34.549684 -52.092574 42.672716
32.556696 -52.113844 42.854030
30.872270 -52.869104 42.964381
28.988532 -53.150251 43.120570
27.413356 -54.165388 43.205796
25.420367 -54.186657 43.387110
23.492767 -54.363468 43.553386
21.852203 -55.223064 43.653650
19.859215 -55.244334 43.834964
18.105859 -55.835627 43.961168
16.291050 -56.280741 44.101504
14.298062 -56.302011 44.282818
12.305073 -56.323280 44.464131
10.430917 -56.627221 44.618116
8.736909 -57.359687 44.730671
6.743920 -57.380957 44.911985
4.750932 -57.402227 45.093299
2.757943 -57.423496 45.274612
0.764955 -57.444766 45.455926
-1.228034 -57.466036 45.637239
-3.221023 -57.487305 45.818553
-5.214011 -57.508575 45.999867
-70.377598 -136.145178 66.743080
-71.967613 -135.167487 66.923798
-73.957450 -135.195329 67.129376
-75.781148 -134.805341 67.324624
-77.537302 -134.245480 67.515672
-79.477753 -134.149122 67.718179
-81.117154 -133.295632 67.901967
-82.891643 -132.781884 68.094155
-84.598588 -132.098265 68.282144
-86.287021 -131.368091 68.468981
-87.877037 -130.390400 68.649698
-89.467053 -129.412708 68.830416
-91.426367 -129.363788 69.034096
-92.850596 -127.969149 69.204505
-94.557541 -127.285530 69.392493
-95.981770 -125.890891 69.562902
-97.405999 -124.496252 69.733311
-99.007148 -123.546559 69.914721
-100.537173 -122.417994 70.091709
-101.961402 -121.023355 70.262118
-103.385631 -119.628716 70.432527
-104.809860 -118.234077 70.602936
-105.534356 -116.536771 70.705869
-106.958585 -115.142132 70.876278
-108.382814 -113.747493 71.046687
-109.465139 -112.204965 71.184126
-110.531539 -110.655549 71.320030
-111.492939 -109.060715 71.445808
-111.980531 -107.260938 71.525897
-112.705027 -105.563632 71.628831
-113.545067 -103.916305 71.742907
-114.558967 -102.344180 71.873748
-115.572867 -100.772055 72.004589
-115.603010 -98.774411 72.040566
-116.611095 -97.199770 72.170846
-116.635423 -95.199610 72.206263
-117.649323 -93.627485 72.337104
-117.673651 -91.627326 72.372520
-117.826023 -89.682551 72.420284
-118.711879 -88.055041 72.538778
-118.736207 -86.054881 72.574194
-118.760535 -84.054721 72.609611
-118.784863 -82.054561 72.645027
-118.809190 -80.054401 72.680444
-118.833518 -78.054241 72.715860
-118.857846 -76.054081 72.751277
-118.335246 -74.272880 72.726461
-117.906856 -72.453963 72.712020
-117.931184 -70.453803 72.747436
-116.993199 -68.838898 72.676874
-116.980194 -66.853684 72.708179
-116.334120 -65.121915 72.669765
-116.029203 -63.253566 72.668923
-115.053885 -61.653607 72.594249
-114.285216 -59.970918 72.542334
-113.602248 -58.253918 72.499857
-113.127577 -56.453529 72.480319
-113.151905 -54.453369 72.515735
-114.083033 -52.845442 72.638595
-114.807529 -51.148136 72.741528
-116.231758 -49.753497 72.911937
-117.207505 -48.164870 73.039099
-118.380483 -46.661553 73.185280
-119.235305 -45.020620 73.300781
-120.529208 -43.569608 73.458623
-121.263106 -41.876370 73.562463
-122.277006 -40.304245 73.693304
-123.290906 -38.732120 73.824145
-124.126924 -37.083053 73.937833
-125.318706 -35.587870 74.085827
-125.575916 -33.688442 74.143700
-126.356934 -32.015585 74.252085
-127.370834 -30.443460 74.382926
-128.384734 -28.871335 74.513767
-128.473900 -26.899221 74.555435
-129.422962 -25.299050 74.680024
-129.922891 -23.504610 74.761303
-130.461190 -21.726766 74.846282
-130.672150 -19.807332 74.899695
-131.499418 -18.154481 75.012539
-132.121142 -16.412722 75.105562
-132.537646 -14.582196 75.178796
-132.561974 -12.582036 75.214213
-133.575874 -11.009911 75.345054
-133.600202 -9.009751 75.380470
-133.624530 -7.009591 75.415887
-133.669184 -5.018223 75.453264
-134.662758 -3.437306 75.582144
-134.687086 -1.437147 75.617561
-134.711414 0.563013 75.652977
-134.735741 2.563173 75.688394
-134.760069 4.563333 75.723811
-134.784397 6.563493 75.759227
-134.808725 8.563653 75.794644
-134.833053 10.563813 75.830060
-134.418828 12.388401 75.817179
-133.882063 14.163931 75.790803
-133.906391 16.164091 75.826220
-133.930719 18.164251 75.861636
-133.100670 19.822368 75.802961
-132.979728 21.764370 75.822379
-133.004056 23.764530 75.857796
-132.028738 25.364489 75.783122
-131.782512 27.256334 75.788743
-131.077748 28.964607 75.743866
-131.102076 30.964767 75.779282
-130.126758 32.564726 75.704609
-129.757497 34.407315 75.696680
-129.074529 36.124315 75.654203
-128.200449 37.764803 75.590678
-127.708594 39.558313 75.569248
-127.025626 41.275312 75.526771
-126.274141 42.964881 75.476748
-125.659690 44.709310 75.441817
-124.323505 46.164798 75.327401
-123.586898 47.860324 75.279017
-122.903930 49.577323 75.236540
-122.220963 51.294322 75.194063
-121.421878 52.964834 75.138798
-120.148171 54.445335 75.031263
-118.758346 55.879349 74.910940
-118.075379 57.596349 74.868463
-117.392411 59.313348 74.825986
-116.002586 60.747362 74.705664
-115.319619 62.464361 74.663186
-113.929794 63.898375 74.542864
-112.619687 65.364304 74.431321
-111.857002 67.049389 74.380064
-110.467178 68.483403 74.259742
-109.077354 69.917417 74.139419
-107.687530 71.351431 74.019097
-106.297705 72.785445 73.898774
-104.907881 74.219460 73.778452
-103.518057 75.653474 73.658129
-102.128233 77.087488 73.537807
-100.738408 78.521502 73.417484
-99.348584 79.955517 73.297162
-97.958760 81.389531 73.176839
-96.421134 82.477161 73.035516
-94.879198 83.554692 72.893580
-93.489374 84.988706 72.773257
-92.099550 86.422720 72.652935
-90.582493 87.558554 72.514534
-89.016797 88.580402 72.369222
-87.330252 89.319028 72.206738
-85.940427 90.753042 72.086416
-84.319711 91.645943 71.933286
-82.860866 92.918203 71.803156
-81.188320 93.689638 71.642662
-79.622624 94.711485 71.497350
-78.091568 95.814510 71.356959
-76.491234 96.755180 71.206725
-74.925538 97.777027 71.061413
-73.322269 98.710818 70.910763
-71.632532 99.441965 70.747825
-69.942795 100.173111 70.584888
-68.253058 100.904258 70.421951
-66.672920 101.892258 70.274587
-65.107225 102.914105 70.129275
-63.483760 103.800566 69.975755
-61.794023 104.531712 69.812817
-60.104285 105.262859 69.649880
-58.420302 106.007490 69.487761
-56.854606 107.029337 69.342449
-55.035074 107.456299 69.161069
-53.345337 108.187446 68.998132
-51.733379 109.100874 68.846246
-49.965863 109.649739 68.672258
-48.276126 110.380886 68.509320
-46.612152 111.172411 68.350044
-44.896652 111.843179 68.183446
-43.056621 112.222100 67.999154
-41.490925 113.243948 67.853842
-39.527528 113.333752 67.652020
-37.935393 114.293637 67.502952
-35.945557 114.321480 67.297373
-34.379862 115.343327 67.152061
-32.390026 115.371170 66.946483
-30.778930 116.286618 66.794720
-28.834494 116.420859 66.595593
-27.099543 117.046044 66.426231
-25.278962 117.470549 66.244703
-23.420156 117.805470 66.057742
-21.723431 118.520239 65.893812
-19.733594 118.548081 65.688234
-18.051032 119.296042 65.526316
-16.178063 119.597771 65.337344
-14.188226 119.625613 65.131766
-12.381995 120.083747 64.952276
-10.632695 120.675303 64.780875
-8.642859 120.703145 64.575297
-6.653022 120.730988 64.369719
-5.023221 121.602599 64.215298
-3.097491 121.780678 64.018829
-1.107654 121.808520 63.813251
0.882182 121.836362 63.607672
2.872018 121.864205 63.402094
4.625115 122.446863 63.230154
6.427550 122.913895 63.051204
8.417386 122.941737 62.845626
10.407222 122.969580 62.640047
12.397058 122.997422 62.434469
14.386894 123.025265 62.228891
16.376731 123.053107 62.023313
18.366567 123.080949 61.817735
20.356403 123.108792 61.612156
22.346239 123.136634 61.406578
24.336076 123.164477 61.201000
26.325912 123.192319 60.995422
28.315748 123.220162 60.789844
30.305584 123.248004 60.584265
32.295420 123.275847 60.378687
33.893846 122.319306 60.197447
35.875272 122.325998 59.992391
37.865109 122.353840 59.786813
39.854945 122.381683 59.581235
41.844781 122.409525 59.375657
43.559433 121.745290 59.187189
45.424633 121.459676 58.989361
47.414469 121.487519 58.783783
49.404305 121.515361 58.578205
50.994321 120.537670 58.397487
52.984157 120.565512 58.191909
54.973994 120.593355 57.986331
56.638910 119.804035 57.800956
58.553846 119.643506 57.600035
60.543682 119.671348 57.394457
62.133698 118.693657 57.213739
64.123534 118.721499 57.008161
65.739065 117.807979 56.825857
67.703386 117.771650 56.621865
69.435671 117.151760 56.432301
71.283238 116.821801 56.235569
73.132276 116.495542 56.038746
74.863090 115.871952 55.849274
76.827419 115.959572 55.647320
78.418622 116.921642 55.498383
79.906980 118.124733 55.364060
81.550012 118.965336 55.207759
83.115708 119.987183 55.062447
84.681403 121.009031 54.917135
86.671240 121.036873 54.711557
88.655578 121.077599 54.506760
90.226771 122.086563 54.360667
92.216607 122.114405 54.155089
94.206444 122.142248 53.949510
96.196280 122.170090 53.743932
98.186116 122.197933 53.538354
100.004105 121.793586 53.343461
101.765968 121.248084 53.152058
103.755804 121.275926 52.946480
105.407655 120.453748 52.761917
107.335656 120.326077 52.560184
108.925672 119.348386 52.379467
110.811205 119.113910 52.180374
112.505524 118.398537 51.993171
114.095540 117.420845 51.812453
115.685556 116.443154 51.631736
117.356269 115.668414 51.446000
119.063214 114.984795 51.258012
120.487443 113.590156 51.087603
122.194388 112.906536 50.899615
123.618617 111.511897 50.729206
125.042846 110.117258 50.558797
126.467075 108.722619 50.388388
127.600646 107.790990 50.255690
128.898516 106.341695 50.097466
130.322745 104.947056 49.927057
131.746974 103.552417 49.756648
132.645819 101.930525 49.636902
133.659719 100.358400 49.506061
134.620195 98.763167 49.380372
135.344691 97.065861 49.277438
136.069187 95.368556 49.174504
136.725747 93.641866 49.078122
137.518178 91.973945 48.968637
137.763975 90.069581 48.911864
138.777875 88.497456 48.781023
138.802203 86.497296 48.745607
138.826531 84.497136 48.710190
139.041458 82.579419 48.656394
140.465687 81.184780 48.485985
141.889916 79.790141 48.315576
143.314145 78.395502 48.145167
144.738374 77.000863 47.974758
146.162604 75.606224 47.804349
147.586833 74.211585 47.633940
149.011062 72.816946 47.463531
150.435291 71.422307 47.293122
151.859520 70.027668 47.122713
152.584016 68.330362 47.019779
154.008245 66.935723 46.849370
154.975949 65.343616 46.722984
156.156970 63.843779 46.576028
157.003749 62.199366 46.461302
158.017649 60.627241 46.330461
159.030191 59.054529 46.199751
160.454420 57.659890 46.029342
161.178916 55.962584 45.926409
162.073250 54.338742 45.807097
163.087150 52.766617 45.676256
164.052136 51.173335 45.550132
164.776632 49.476029 45.447198
166.128850 48.050242 45.283734
166.225624 46.081418 45.241331
167.167078 44.477957 45.117476
168.180978 42.905832 44.986635
168.399112 40.989502 44.932530
169.219206 39.333547 44.820378
170.233106 37.761422 44.689537
170.572599 35.897586 44.623729
171.271334 34.189137 44.523279
171.321858 32.200308 44.485337
172.309562 30.616853 44.357022
172.770850 28.805698 44.279469
173.347790 27.044568 44.190764
173.372118 25.044408 44.155348
174.244604 23.411115 44.038143
174.410346 21.472123 43.989090
174.434674 19.471963 43.953674
174.459002 17.471803 43.918257
175.472902 15.899678 43.787416
175.497230 13.899518 43.752000
175.521558 11.899358 43.716583
175.545885 9.899199 43.681167
175.570213 7.899039 43.645750
175.594541 5.898879 43.610334
175.618869 3.898719 43.574917
175.643197 1.898559 43.539501
175.391041 0.009087 43.534533
174.692207 -1.701560 43.578757
174.716535 -3.701720 43.543341
174.740863 -5.701879 43.507924
174.072883 -7.424879 43.548751
173.789872 -9.301998 43.547181
173.814200 -11.302158 43.511765
172.838882 -12.902117 43.586438
172.754725 -14.858845 43.562969
171.887892 -16.502235 43.625695
171.912220 -18.502395 43.590279
170.936902 -20.102354 43.664952
170.729710 -22.009827 43.655032
169.985911 -23.702473 43.704209
169.363774 -25.443825 43.739987
168.680807 -27.160824 43.782464
167.997839 -28.877823 43.824941
167.084285 -30.502509 43.892813
166.631903 -32.311822 43.909895
165.242079 -33.745836 44.030218
164.559111 -35.462835 44.072695
163.876143 -37.179834 44.115172
163.193176 -38.896833 44.157650
161.803351 -40.330847 44.277972
161.120384 -42.047847 44.320449
159.730559 -43.481861 44.440772
159.047592 -45.198860 44.483249
157.657767 -46.632874 44.603571
156.355785 -48.102055 44.714220
155.584975 -49.783887 44.766371
154.902008 -51.500887 44.808848
153.512183 -52.934901 44.929171
152.122359 -54.368915 45.049493
150.732535 -55.802929 45.169816
149.504231 -57.301607 45.272350
148.659743 -58.953943 45.332615
147.269918 -60.387957 45.452938
145.880094 -61.821971 45.573260
144.490270 -63.255985 45.693583
143.100446 -64.689999 45.813905
141.710621 -66.124014 45.934228
140.169361 -67.203127 46.076068
138.631060 -68.289175 46.217487
137.241236 -69.723189 46.337810
135.851412 -71.157203 46.458132
134.461587 -72.591217 46.578455
132.771850 -73.322364 46.741392
131.382026 -74.756378 46.861714
129.992202 -76.190392 46.982037
128.302465 -76.921539 47.144974
126.912640 -78.355553 47.265297
125.360688 -79.409609 47.408656
123.833079 -80.520714 47.548556
122.229297 -81.453304 47.699280
120.663602 -82.475151 47.844592
119.063781 -83.417022 47.994753
117.532211 -84.518845 48.135216
115.966516 -85.540693 48.280528
114.294482 -86.313329 48.440950
112.604745 -87.044476 48.603887
110.915008 -87.775623 48.766824
109.525184 -89.209637 48.887146
107.835447 -89.940784 49.050083
106.148202 -90.677771 49.212666
104.455973 -91.403077 49.375958
102.766236 -92.134224 49.538895
101.076499 -92.865370 49.701832
99.461279 -93.771155 49.854181
97.895584 -94.793003 49.999493
96.307200 -95.761678 50.148029
94.340052 -95.842692 50.350383
92.774357 -96.864540 50.495695
90.938076 -97.252251 50.679455
89.248339 -97.983397 50.842392
87.653130 -98.936077 50.991897
85.868865 -99.445691 51.168266
84.097598 -99.985766 51.342788
82.189478 -100.205117 51.536755
80.542066 -101.035456 51.693678
78.810004 -101.667410 51.862629
76.986535 -102.085146 52.044568
75.420839 -103.106993 52.189880
73.431003 -103.134835 52.395458
71.751143 -103.889129 52.556992
69.875471 -104.184525 52.746349
68.071756 -104.648555 52.925481
66.319940 -105.234215 53.097239
64.392369 -105.407981 53.293970
62.764408 -106.283905 53.448129
60.774572 -106.311747 53.653707
59.023245 -106.898554 53.825396
57.219040 -107.361437 54.004598
55.229204 -107.389279 54.210176
53.354208 -107.686259 54.399436
51.673672 -108.438969 54.561066
49.683836 -108.466811 54.766644
47.694000 -108.494654 54.972222
45.995434 -109.205111 55.136414
44.138468 -109.544343 55.323113
42.148632 -109.572186 55.528691
40.158796 -109.600028 55.734269
38.168960 -109.627871 55.939847
36.347098 -110.049374 56.121558
34.613428 -110.677561 56.290738
32.623592 -110.705403 56.496316
30.633755 -110.733245 56.701894
28.643919 -110.761088 56.907472
26.654083 -110.788930 57.113050
24.664247 -110.816773 57.318629
22.674411 -110.844615 57.524207
20.684574 -110.872458 57.729785
18.694738 -110.900300 57.935363
16.704902 -110.928143 58.140941
14.715066 -110.955985 58.346520
12.725230 -110.983828 58.552098
10.735393 -111.011670 58.757676
8.745557 -111.039513 58.963254
7.082310 -110.245996 59.148525
5.165705 -110.089664 59.349550
3.175869 -110.117506 59.555128
1.186033 -110.145349 59.760706
-0.803803 -110.173191 59.966285
-2.583277 -109.671979 60.158783
-4.383655 -109.223342 60.352580
-6.373492 -109.251184 60.558159
-8.363328 -109.279027 60.763737
-9.976488 -108.359542 60.945893
-11.943180 -108.329178 61.150033
-13.933016 -108.357020 61.355611
-15.922852 -108.384863 61.561189
-17.336670 -109.762648 61.684921
-18.019637 -111.479647 61.727398
-19.409462 -112.913661 61.847720
-20.799286 -114.347675 61.968043
-21.879631 -115.905587 62.054283
-22.872078 -117.498689 62.130843
-24.261902 -118.932703 62.251165
-25.651726 -120.366717 62.371487
-27.152291 -121.541202 62.507545
-28.731288 -122.531878 62.654747
-29.414256 -124.248877 62.697224
-31.103993 -124.980024 62.860161
-32.493817 -126.414038 62.980484
-34.183554 -127.145185 63.143421
-35.573378 -128.579199 63.263743
-37.529531 -128.685981 63.464536
-39.095227 -129.707828 63.609848
-40.660922 -130.729675 63.755160
-42.332326 -131.503786 63.915492
-44.022064 -132.234932 64.078429
-45.782149 -132.801212 64.251362
-47.701450 -132.994358 64.446918
-49.337681 -133.850902 64.602252
-51.080925 -134.456652 64.772792
-52.893212 -134.900592 64.953142
-54.883049 -134.928434 65.158721
-56.450049 -135.947224 65.304218
-58.438580 -135.978124 65.509611
-60.428417 -136.005966 65.715189
-62.418253 -136.033809 65.920767
-64.408089 -136.061651 66.126346
-66.397925 -136.089494 66.331924
-68.387761 -136.117336 66.537502
13.085256 -32.343790 94.881555
11.478547 -31.390066 95.133248
9.480774 -31.445504 95.369695
7.655339 -31.056218 95.612861
5.876293 -30.547219 95.857835
3.878521 -30.602657 96.094282
2.225421 -29.768646 96.344167
0.507623 -29.101593 96.591529
-1.332670 -28.750647 96.834116
-2.939380 -27.796923 97.085809
-4.645771 -27.100435 97.333616
-6.363569 -26.433382 97.580978
-8.081368 -25.766329 97.828341
-9.757280 -24.991188 98.077336
-11.240440 -23.718638 98.333846
-12.681715 -22.337999 98.591990
-14.186345 -21.120852 98.847663
-15.840788 -20.290307 99.097496
-17.282063 -18.909668 99.355639
-18.723338 -17.529029 99.613783
-19.468567 -15.836677 99.807567
-20.909842 -14.456038 100.065711
-21.655072 -12.763685 100.259496
-22.400302 -11.071332 100.453281
-23.145531 -9.378979 100.647066
-24.159776 -7.807101 100.865725
-24.200274 -5.799145 100.994348
-25.225129 -4.232018 101.213988
-25.265627 -2.224061 101.342611
-25.306125 -0.216104 101.471234
-25.346623 1.791853 101.599857
-25.193052 3.725027 101.700570
-24.426592 5.422031 101.713140
-24.467090 7.429988 101.841763
-23.506561 9.052210 101.826423
-23.196211 10.924971 101.904588
-21.812209 12.384012 101.828346
-21.136040 14.115809 101.853901
-20.459871 15.847606 101.879456
-19.075869 17.306647 101.803213
-17.691867 18.765688 101.726970
-16.307866 20.224729 101.650727
-14.618882 20.986320 101.494879
-13.234880 22.445361 101.418637
-11.850878 23.904402 101.342394
-10.268668 24.910171 101.214416
-8.702206 25.951952 101.090548
-7.088908 26.886627 100.954455
-5.399924 27.648219 100.798607
-3.710940 28.409810 100.642759
-2.005046 29.132733 100.482498
-0.332972 29.932994 100.331063
1.356012 30.694586 100.175215
3.125651 31.271733 99.998315
5.123423 31.327171 99.761869
6.727947 32.281912 99.628066
8.687658 32.424391 99.401554
10.685430 32.479829 99.165107
12.251893 33.521610 99.041239
14.249665 33.577049 98.804793
16.247437 33.632487 98.568346
18.245210 33.687926 98.331899
20.242982 33.743365 98.095453
22.240754 33.798804 97.859006
24.238527 33.854242 97.622559
26.074315 33.491672 97.379797
27.843008 32.955956 97.134419
29.840781 33.011395 96.897972
31.780756 32.917686 96.659272
33.445262 32.113109 96.409832
35.216352 31.583580 96.164547
37.049744 31.214824 95.921692
38.928472 30.963061 95.680604
40.654226 30.316538 95.433552
42.364068 29.628955 95.185879
44.081866 28.961902 94.938517
45.523141 27.581264 94.680373
47.240939 26.914211 94.433011
48.958737 26.247158 94.185649
50.400012 24.866519 93.927505
52.117810 24.199466 93.680143
52.863040 22.507114 93.486358
54.533104 21.716881 93.237135
56.022113 20.459422 92.980852
57.463388 19.078783 92.722709
58.759910 17.633319 92.477950
59.649892 16.005792 92.270781
60.395122 14.313439 92.076996
61.834473 12.931939 91.819030
61.885581 10.928733 91.689426
62.899826 9.356855 91.470767
62.940324 7.348898 91.342144
63.965179 5.781772 91.122504
64.005677 3.773815 90.993881
64.046175 1.765858 90.865257
64.086673 -0.242099 90.736634
63.933102 -2.175273 90.635921
63.166642 -3.872277 90.623351
63.207140 -5.880234 90.494728
62.246611 -7.502456 90.510069
61.286081 -9.124678 90.525409
60.552258 -10.834258 90.508146
59.876090 -12.566055 90.482591
58.492088 -14.025096 90.558834
57.815919 -15.756893 90.533279
56.431917 -17.215934 90.609521
54.843257 -18.206952 90.739183
53.549561 -19.510024 90.814196
52.682763 -21.168364 90.816057
50.993779 -21.929955 90.971905
49.590223 -23.344280 91.053251
47.920793 -24.150588 91.203996
46.231809 -24.912180 91.359844
44.847807 -26.371221 91.436086
43.158823 -27.132813 91.591934
41.326601 -27.566842 91.785170
39.760139 -28.608623 91.909037
37.762366 -28.664061 92.145484
36.097904 -29.481731 92.294932
34.198132 -29.761281 92.505799
32.631669 -30.803061 92.629667
30.633897 -30.858500 92.866113
28.636125 -30.913939 93.102560
27.043020 -31.894792 93.233382
25.071890 -32.011158 93.462875
23.074118 -32.066597 93.699321
21.076345 -32.122035 93.935768
19.078573 -32.177474 94.172215
17.080801 -32.232913 94.408661
15.083028 -32.288352 94.645108
9.378324 -67.260010 129.407298
7.762269 -66.333152 129.640828
5.771298 -66.421247 129.844638
3.780327 -66.509341 130.048448
1.789357 -66.597436 130.252258
0.173301 -65.670578 130.485787
-1.817669 -65.758673 130.689597
-3.491902 -64.989310 130.918515
-5.424696 -64.919910 131.126937
-7.206982 -64.443064 131.347290
-9.031722 -64.081147 131.564277
-10.656957 -63.179139 131.797079
-12.638748 -63.242384 132.001617
-14.106932 -61.915213 132.246868
-15.870860 -61.388669 132.468676
-17.822011 -61.368968 132.675643
-19.477886 -60.549906 132.906016
-21.271986 -60.105042 133.125432
-22.731869 -58.755400 133.371342
-24.700968 -58.784285 133.576885
-26.181843 -57.491474 133.821131
-27.933079 -56.930570 134.043945
-28.939831 -55.904516 134.220029
-30.583013 -55.051095 134.451409
-32.389806 -54.640591 134.669819
-33.849688 -53.290949 134.915728
-35.806095 -53.285474 135.122278
-37.299663 -52.027023 135.365518
-38.759545 -50.677381 135.611427
-40.279347 -49.489949 135.852587
-41.944415 -48.695776 136.082232
-43.669403 -48.063813 136.307126
-45.129285 -46.714170 136.553036
-46.589168 -45.364528 136.798946
-48.195466 -44.677159 137.015111
-49.082050 -43.059890 137.218859
-50.634645 -41.961233 137.457419
-51.330640 -40.641213 137.620806
-52.342828 -39.082578 137.833790
-54.318457 -39.129141 138.038817
-55.422906 -37.645978 138.256376
-56.560698 -36.145978 138.478598
-58.020580 -34.796336 138.724508
-58.579605 -33.026156 138.904165
-59.556370 -31.450986 139.114545
-61.281358 -30.819023 139.339440
-62.693396 -29.447046 139.581831
-62.817148 -27.473674 139.729477
-64.277030 -26.124031 139.975386
-65.044925 -24.451356 140.170405
-65.923711 -22.830447 140.373579
-66.975944 -21.290506 140.589508
-67.348610 -19.433332 140.755460
-68.116506 -17.760657 140.950479
-69.154025 -16.213848 141.165327
-69.227640 -14.217070 141.309285
-69.301255 -12.220293 141.453244
-70.353488 -10.680352 141.669174
-70.427103 -8.683575 141.813133
-71.339901 -7.078544 142.018808
-71.552951 -5.146857 142.173021
-71.626566 -3.150080 142.316980
-71.700181 -1.153302 142.460939
-71.773796 0.843475 142.604897
-71.847411 2.840253 142.748856
-71.921026 4.837030 142.892815
-71.994641 6.833807 143.036774
-72.068256 8.830585 143.180733
-72.141871 10.827362 143.324691
-71.206426 12.455252 143.337148
-71.280041 14.452029 143.481107
-70.344596 16.079919 143.493564
-70.408833 18.073268 143.636300
-69.053058 19.547495 143.593979
-68.547321 21.332476 143.662436
-68.420327 23.143792 143.772603
-66.809199 24.060786 143.665362
-66.728521 26.001157 143.789213
-65.207603 26.839006 143.686081
-64.565341 28.574076 143.736746
-63.900660 30.300951 143.784489
-62.250231 31.091454 143.664478
-61.607969 32.826524 143.715143
-60.252194 34.300751 143.672822
-58.896419 35.774978 143.630501
-58.192850 37.487636 143.673176
-56.290430 37.657594 143.484281
-55.269849 39.206777 143.482398
-54.266200 40.809733 143.485966
-52.693328 41.810210 143.388451
-51.237577 43.066267 143.320712
-49.881802 44.540494 143.278391
-48.065641 45.010062 143.119024
-46.536106 46.105109 143.032527
-45.180331 47.579336 142.990206
-43.437954 48.209915 142.849597
-41.517563 48.452030 142.663731
-39.904421 49.364627 142.555978
-38.488941 50.708565 142.498477
-36.819296 51.497862 142.376360
-35.143245 52.273179 142.252613
-33.285763 52.652574 142.082741
-31.294792 52.740669 141.878931
-29.752230 53.807286 141.789122
-28.134782 54.710488 141.680274
-26.218697 54.961998 141.495502
-24.227726 55.050093 141.291692
-22.482094 55.673569 141.150256
-20.694193 56.204805 140.998073
-18.703223 56.292900 140.794263
-16.712252 56.380995 140.590453
-14.839486 56.727037 140.416695
-13.178719 57.535707 140.296834
-11.187749 57.623802 140.093024
-9.196778 57.711896 139.889214
-7.205807 57.799991 139.685404
-5.214837 57.888086 139.481594
-3.223866 57.976181 139.277784
-1.232895 58.064275 139.073974
0.758075 58.152370 138.870164
2.749046 58.240465 138.666354
4.740016 58.328560 138.462544
6.730987 58.416654 138.258734
8.457292 57.788258 138.033944
10.338013 57.577891 137.821394
12.328984 57.665986 137.617584
14.319955 57.754081 137.413774
16.152556 57.413447 137.197410
17.926981 56.915318 136.976434
19.867636 56.867201 136.768636
21.534007 56.076555 136.539095
23.524978 56.164650 136.335285
25.141033 55.237792 136.101755
27.132004 55.325887 135.897945
28.757678 54.425067 135.665178
30.739030 54.487124 135.460605
31.515665 52.838109 135.266279
33.388964 52.607649 135.053141
35.230745 52.291864 134.837505
36.995991 51.768886 134.615802
38.838449 51.695493 134.416628
39.713720 50.072943 134.213712
41.636895 49.977506 134.004528
42.909189 49.284134 133.823152
44.286829 48.098031 133.597064
46.277800 48.186125 133.393254
47.219787 46.984745 133.212036
48.927734 46.306650 132.985791
50.019962 45.417481 132.810035
51.577668 44.427175 132.578327
53.427749 44.133861 132.363349
54.887632 42.784219 132.117439
56.612619 42.152256 131.892544
58.130878 41.423789 131.682853
59.105501 39.847619 131.472631
61.066739 39.855222 131.266464
62.555476 38.583693 131.022842
64.015359 37.234051 130.776932
65.284703 36.389385 130.585547
66.508241 34.929413 130.357019
68.189925 34.180222 130.128692
69.398494 32.810276 129.907882
70.461006 31.275133 129.691196
71.920889 29.925491 129.445287
72.688784 28.252816 129.250268
74.148666 26.903174 129.004358
75.873654 26.271211 128.779464
76.668985 24.611344 128.582427
78.101431 23.248894 128.338535
79.561314 21.899251 128.092626
80.329209 20.226576 127.897607
81.097104 18.553902 127.702589
82.556986 17.204259 127.456679
83.961001 15.828537 127.214878
84.034616 13.831759 127.070919
84.860672 12.186235 126.871623
86.139082 10.751878 126.639060
86.396462 8.840885 126.481586
87.264930 7.215160 126.279171
87.338545 5.218383 126.135213
88.390778 3.678442 125.919283
88.464393 1.681665 125.775324
89.516626 0.141724 125.559394
89.590241 -1.855053 125.415436
89.663856 -3.851831 125.271477
89.771672 -5.832643 125.125003
90.789704 -7.388549 124.911588
90.863319 -9.385326 124.767630
90.936934 -11.382104 124.623671
90.547863 -13.209734 124.540010
90.075105 -15.006771 124.467255
90.148720 -17.003548 124.323297
90.222335 -19.000325 124.179338
90.119354 -20.932544 124.058393
89.360505 -22.624993 124.022922
89.434120 -24.621770 123.878964
88.498675 -26.249660 123.866507
88.263819 -28.133668 123.762748
86.908044 -29.607895 123.805070
86.701400 -31.502216 123.697634
85.623520 -33.078035 123.703740
84.830510 -34.757996 123.672721
83.895065 -36.385885 123.660264
82.666148 -37.330483 123.725343
82.002650 -39.057789 123.677446
80.668111 -40.539780 123.716999
79.312336 -42.014007 123.759320
78.670074 -43.749078 123.708656
76.997226 -44.531385 123.831588
76.294839 -46.244475 123.788759
74.839120 -47.391378 123.863939
73.326341 -48.522989 123.946176
71.970566 -49.997217 123.988498
71.242019 -51.543993 123.959770
69.338384 -51.822674 124.141376
67.982609 -53.296901 124.183697
66.614331 -54.743845 124.229197
64.636914 -54.861515 124.429561
63.281138 -56.335743 124.471882
61.538236 -56.965175 124.612625
59.935443 -57.900357 124.717747
58.262596 -58.682664 124.840679
56.462141 -59.186505 124.996053
54.916900 -60.247279 125.086543
52.928608 -60.341217 125.289672
51.386045 -61.407834 125.379481
49.395075 -61.495929 125.583291
47.908437 -62.684587 125.658882
46.309950 -63.629164 125.762909
44.318979 -63.717259 125.966719
42.776417 -64.783876 126.056528
40.785446 -64.871971 126.260338
38.794475 -64.960066 126.464148
36.803505 -65.048160 126.667958
35.247286 -66.084977 126.761239
33.269972 -66.202873 126.961578
31.279001 -66.290967 127.165388
29.288031 -66.379062 127.369198
27.297060 -66.467157 127.573008
25.306089 -66.555252 127.776818
23.315119 -66.643346 127.980628
21.324148 -66.731441 128.184438
19.333177 -66.819536 128.388248
17.342207 -66.907631 128.592058
15.351236 -66.995725 128.795868
13.360266 -67.083820 128.999678
11.369295 -67.171915 129.203488
-4.795166 -109.713980 144.080593
-6.395843 -108.793173 144.408024
-8.373324 -108.886363 144.698008
-10.350805 -108.979552 144.987991
-12.328286 -109.072741 145.277974
-14.305767 -109.165931 145.567958
-15.906443 -108.245124 145.895389
-17.883924 -108.338313 146.185372
-19.861405 -108.431503 146.475356
-21.524809 -107.679499 146.796552
-23.439563 -107.603885 147.092770
-25.417044 -107.697074 147.382753
-27.190171 -107.240339 147.693045
-28.995201 -106.869457 148.000167
-30.878265 -106.708565 148.299534
-32.573358 -106.041839 148.617581
-34.550839 -106.135028 148.907565
-36.151516 -105.214221 149.234995
-38.128997 -105.307411 149.524979
-39.729673 -104.386604 149.852410
-41.676105 -104.396239 150.145479
-43.307830 -103.558986 150.469824
-45.285311 -103.652176 150.759807
-46.885987 -102.731368 151.087238
-48.785851 -102.615687 151.384935
-50.464145 -101.903751 151.704652
-52.207504 -101.366909 152.017903
-53.918330 -100.742521 152.334386
-55.642978 -100.155326 152.649497
-57.339983 -99.493743 152.967354
-59.050809 -98.869354 153.283838
-60.821812 -98.406902 153.594341
-62.472462 -97.620576 153.916806
-64.183288 -96.996187 154.233289
-65.894115 -96.371798 154.549773
-67.601322 -95.737670 154.866617
-69.201998 -94.816863 155.194047
-70.802674 -93.896056 155.521478
-72.470978 -93.157239 155.842188
-74.181805 -92.532850 156.158671
-75.892631 -91.908461 156.475155
-77.337016 -90.567068 156.818118
-79.047842 -89.942679 157.134602
-80.758669 -89.318290 157.451086
-82.203054 -87.976898 157.794049
-83.913880 -87.352509 158.110533
-85.358265 -86.011116 158.453496
-87.069091 -85.386727 158.769980
-88.513477 -84.045335 159.112942
-90.224303 -83.420946 159.429426
-91.668688 -82.079553 159.772389
-93.113073 -80.738160 160.115352
-94.557458 -79.396768 160.458315
-96.036689 -78.149147 160.797815
-97.712669 -77.430986 161.117762
-99.157054 -76.089594 161.460725
-100.601439 -74.748201 161.803688
-102.045825 -73.406808 162.146651
-103.490210 -72.065416 162.489614
-104.934595 -70.724023 162.832577
-106.378980 -69.382630 163.175540
-107.823365 -68.041238 163.518503
-108.578427 -66.375569 163.787533
-110.022812 -65.034176 164.130496
-111.467198 -63.692783 164.473459
-112.272446 -62.050723 164.747873
-113.666645 -60.685722 165.085453
-114.421708 -59.020053 165.354484
-115.866093 -57.678660 165.697447
-116.621156 -56.012991 165.966478
-118.065541 -54.671599 166.309441
-118.820603 -53.005930 166.578471
-119.575666 -51.340261 166.847502
-121.020051 -49.998868 167.190465
-121.775114 -48.333199 167.459496
-122.672815 -46.734632 167.743825
-123.712852 -45.203022 168.043421
-124.040302 -43.336192 168.266588
-124.818077 -41.681208 168.538055
-125.858114 -40.149599 168.837650
-126.305490 -38.339186 169.073681
-126.963339 -36.627785 169.332285
-127.126293 -34.683571 169.537810
-128.068564 -33.105971 169.826920
-128.636418 -31.352234 170.075872
-129.173789 -29.584156 170.321554
-129.238976 -27.593951 170.516594
-130.212284 -26.030951 170.809032
-130.344201 -24.072137 171.011228
-130.409389 -22.081932 171.206268
-131.098827 -20.385391 171.468260
-131.514614 -18.560118 171.700902
-131.579802 -16.569913 171.895942
-131.644990 -14.579708 172.090981
-131.710178 -12.589503 172.286020
-131.775365 -10.599297 172.481060
-131.840553 -8.609092 172.676099
-131.905741 -6.618887 172.871139
-131.970929 -4.628682 173.066178
-131.034277 -3.003921 173.075906
-131.099465 -1.013716 173.270945
-131.164653 0.976489 173.465985
-130.459951 2.685860 173.518617
-130.293189 4.591455 173.670752
-130.358376 6.581660 173.865791
-129.421724 8.206422 173.875519
-129.301617 10.129036 174.036284
-128.550260 11.821388 174.080287
