ply
format ascii 1.0
element vertex 1517
property float x
property float y
property float z
end_header
-71.506696 -116.020611 29.463535
-73.134673 -115.129449 29.601190
-74.718697 -114.131258 29.734187
-76.617444 -113.899430 29.900542
-78.297596 -113.135315 30.043728
-79.881619 -112.137124 30.176724
-81.465643 -111.138933 30.309720
-83.141258 -110.363772 30.452425
-85.044542 -110.142990 30.619261
-86.548424 -108.949651 30.743763
-88.212589 -108.146608 30.885254
-89.796613 -107.148418 31.018250
-90.664815 -105.827374 31.085581
-92.368397 -105.120314 31.231250
-93.965178 -104.153187 31.365598
-95.485047 -102.998777 31.491794
-97.133226 -102.156806 31.631591
-98.601696 -100.877239 31.752339
-100.301273 -100.160424 31.897583
-101.718346 -98.755702 32.012883
-103.131413 -97.341224 32.127758
-104.544480 -95.926747 32.242634
-105.957546 -94.512270 32.357509
-107.299147 -93.654172 32.470060
-108.370355 -92.097053 32.553658
-109.783422 -90.682576 32.668534
-111.196488 -89.268099 32.783409
-112.609555 -87.853621 32.898284
-114.022622 -86.439144 33.013159
-114.731848 -84.730988 33.063640
-116.144915 -83.316511 33.178515
-117.280988 -81.786457 33.268048
-118.267207 -80.193877 33.343871
-119.278758 -78.611866 33.422011
-120.277642 -77.024571 33.498992
-120.394884 -75.069408 33.495312
-121.807951 -73.654931 33.610187
-123.221018 -72.240453 33.725062
-123.930244 -70.532297 33.775542
-124.276684 -68.672768 33.792831
-125.348695 -67.115984 33.876503
-126.274454 -65.498177 33.946794
-126.767146 -63.699672 33.977464
-127.276842 -61.908261 34.009689
-128.185598 -60.283359 34.078424
-128.279230 -58.318344 34.072583
-129.278114 -56.731049 34.149565
-129.609434 -54.865210 34.165470
-130.280502 -53.141133 34.212459
-130.284005 -51.138512 34.198373
-131.033270 -49.447062 34.252516
-131.286393 -47.548596 34.261267
-132.285278 -45.961300 34.338249
-132.288781 -43.958680 34.324162
-132.292284 -41.956059 34.310075
-132.295787 -39.953439 34.295988
-132.299290 -37.950818 34.281901
-132.302793 -35.948197 34.267814
-133.187870 -34.313415 34.334384
-133.305181 -32.358281 34.330709
-133.308684 -30.355661 34.316622
-133.312188 -28.353040 34.302535
-133.315691 -26.350419 34.288449
-133.319194 -24.347799 34.274362
-133.322697 -22.345178 34.260275
-133.326200 -20.342558 34.246188
-132.723737 -18.591046 34.180284
-132.336376 -16.750397 34.132773
-132.339879 -14.747776 34.118686
-132.343382 -12.745156 34.104600
-132.346885 -10.742535 34.090513
-132.350388 -8.739914 34.076426
-132.028584 -6.872099 34.034521
-131.360564 -5.147753 33.963011
-131.364067 -3.145133 33.948924
-131.328575 -1.158671 33.931503
-130.374242 0.447028 33.835510
-129.380915 2.036568 33.736182
-129.384418 4.039189 33.722095
-129.387921 6.041810 33.708008
-129.151678 7.804445 33.674431
-127.520970 8.685148 33.523796
-127.403744 10.637740 33.499386
-127.407247 12.640360 33.485299
-126.413920 14.229901 33.385971
-126.117714 16.108324 33.346255
-125.414467 17.818072 33.271733
-124.430768 19.411602 33.173228
-124.007973 21.237567 33.122688
-123.304726 22.947315 33.048165
-122.447616 24.593303 32.960486
-121.898233 26.366811 32.899120
-121.194986 28.076559 32.824598
-120.464464 29.775004 32.747743
-119.471136 31.364544 32.648415
-118.477808 32.954085 32.549087
-118.481311 34.956705 32.535000
-117.678751 36.625298 32.451985
-116.270639 38.042954 32.317188
-115.501329 39.725326 32.237016
-114.508001 41.314866 32.137688
-113.514674 42.904407 32.038360
-112.752785 44.589854 31.958823
-112.049538 46.299602 31.884301
-111.346291 48.009350 31.809778
-109.938179 49.427006 31.674981
-109.106102 50.825986 31.591292
-107.553683 51.855877 31.446513
-106.830583 53.557398 31.370293
-106.127336 55.267146 31.295770
-104.719223 56.684802 31.160973
-104.015976 58.394550 31.086451
-102.607864 59.812206 30.951654
-101.619497 60.834179 30.856845
-100.599365 62.396888 30.755338
-99.500268 63.942598 30.646965
-98.612710 65.575969 30.556682
-97.388908 67.070002 30.437646
-95.980795 68.487658 30.302849
-95.129912 69.841272 30.217822
-93.641544 70.935278 30.078250
-92.873199 72.618050 29.998160
-91.465087 74.035706 29.863363
-90.661562 75.703899 29.780266
-89.060737 76.456350 29.633198
-87.652625 77.874006 29.498400
-86.683724 79.473669 29.401161
-85.479277 80.851879 29.284670
-83.840163 81.712307 29.133438
-82.705885 83.243438 29.022057
-81.728803 84.839711 28.924118
-80.027701 85.550607 28.768475
-78.619589 86.968263 28.633678
-77.734720 88.602748 28.543624
-76.411311 89.861878 28.417462
-74.807127 90.806564 28.268715
-73.250260 91.865391 28.123334
-71.697912 92.935116 27.978275
-70.772371 94.552747 27.884743
-69.586552 96.062520 27.768955
-67.926015 96.871268 27.616198
-66.477337 98.191072 27.478515
-64.776235 98.901969 27.322872
-63.368122 100.319625 27.188074
-61.960010 101.737281 27.053277
-60.258907 102.448177 26.897634
-58.850795 103.865833 26.762837
-57.276688 104.883073 26.616230
-55.741580 105.994386 26.472397
-54.115638 106.886586 26.322101
-52.632365 108.122938 26.181956
-51.224252 109.540594 26.047159
-49.523150 110.251491 25.891516
-47.793537 110.893612 25.733844
-46.120946 111.673284 25.580230
-44.712833 113.090940 25.445433
-43.051961 113.898882 25.292652
-41.603618 115.219492 25.154992
-39.902516 115.930389 24.999349
-38.310386 116.904152 24.851459
-36.500311 117.352182 24.688063
-35.092198 118.769838 24.553266
-33.568810 119.909421 24.410267
-31.573935 119.911669 24.233722
-29.988892 120.902527 24.086336
-28.580779 122.320183 23.951539
-26.879677 123.031080 23.795896
-26.000184 124.667793 23.706302
-26.003688 126.670413 23.692215
-26.007191 128.673034 23.678128
-26.010694 130.675655 23.664042
-26.014197 132.678275 23.649955
-26.017700 134.680896 23.635868
-26.021203 136.683516 23.621781
-26.024706 138.686137 23.607694
-25.031379 140.275677 23.508366
-25.034882 142.278298 23.494279
-25.038385 144.280919 23.480193
-24.079640 145.884790 23.383822
-24.048561 147.873079 23.366778
-23.055233 149.462620 23.267450
-22.061905 151.052160 23.168122
-20.973663 152.017022 23.064886
-20.074225 153.645470 22.973587
-19.080898 155.235010 22.874259
-18.159056 156.854174 22.781044
-17.455810 158.563921 22.706521
-16.752563 160.273669 22.631999
-15.344450 161.691325 22.497201
-14.641203 163.401073 22.422679
-13.233090 164.818729 22.287882
-12.282691 165.932288 22.195774
-10.828741 167.239374 22.057716
-9.420629 168.657030 21.922919
-8.717382 170.366777 21.848396
-7.016279 171.077674 21.692753
-5.608167 172.495330 21.557956
-3.907065 173.206226 21.402313
-2.498952 174.623882 21.267516
-1.050695 175.944700 21.129863
0.610263 176.752435 20.977076
2.524706 176.948705 20.806253
4.012468 178.174228 20.665789
5.685756 178.952218 20.512125
7.414672 179.596021 20.354503
9.115774 180.306917 20.198860
10.841682 180.957979 20.041451
12.517979 181.728710 19.887573
14.417082 181.961983 19.717842
16.213173 182.443744 19.555441
17.992482 182.965987 19.394233
19.987357 182.968235 19.217688
21.609470 183.869674 19.067665
23.562758 183.972239 18.894079
25.557633 183.974487 18.717534
27.552508 183.976735 18.540989
29.547383 183.978982 18.364444
31.542258 183.981230 18.187899
33.537133 183.983478 18.011354
35.121157 182.985287 17.878357
37.116032 182.987535 17.701812
39.110907 182.989782 17.525267
40.969072 182.659135 17.363213
42.672655 181.952074 17.217544
44.273830 180.995648 17.082730
46.268705 180.997896 16.906185
48.073918 180.538310 16.749743
49.847604 180.001953 16.596644
50.777243 178.830511 16.522800
52.432146 178.004913 16.382291
54.016169 177.006723 16.249295
55.600193 176.008532 16.116299
57.301058 175.294853 15.970918
59.004640 174.587792 15.825249
60.417707 173.173315 15.710374
62.121290 172.466255 15.564705
62.830515 170.758098 15.514224
64.520830 170.018729 15.369962
65.947165 168.636561 15.253680
67.360232 167.222084 15.138805
69.063814 166.515023 14.993136
69.773040 164.806867 14.942655
71.186107 163.392390 14.827780
71.895333 161.684233 14.777300
73.308399 160.269756 14.662424
74.547061 158.782508 14.563506
75.430692 157.147122 14.497069
76.544830 155.607917 14.409543
76.849143 153.730810 14.396108
78.262210 152.316332 14.281233
78.546103 150.430705 14.269667
78.976821 148.606341 14.244667
79.548490 146.840789 14.206772
80.395272 145.190028 14.143707
80.550878 143.250873 14.143878
81.549763 141.663577 14.066896
81.553266 139.660956 14.080983
82.528334 138.063723 14.006181
83.237560 136.355567 13.955700
84.692194 135.042307 13.836419
86.354209 134.234029 13.695156
88.271092 134.046364 13.526878
89.855116 133.048173 13.393882
91.464957 132.112848 13.258149
93.434015 132.052230 13.084340
95.018039 131.054039 12.951344
96.866221 130.699084 12.790348
98.569804 129.992024 12.644679
100.180961 129.059905 12.508807
101.764985 128.061714 12.375811
103.390036 127.163426 12.238466
105.093618 126.456366 12.092797
106.797201 125.749306 11.947128
108.500784 125.042245 11.801459
110.095955 124.071198 11.667281
111.617433 122.920708 11.540914
113.264002 122.074816 11.401289
114.734083 120.799170 11.280370
116.432049 120.078434 11.135296
117.146891 118.383954 11.084221
118.605740 117.080957 10.964493
120.263541 116.262416 10.823676
121.773787 115.084575 10.698500
122.676349 113.847200 10.627527
124.089416 112.432722 10.512652
125.792998 111.725662 10.366983
127.206065 110.311185 10.252108
127.915291 108.603028 10.201627
129.328358 107.188551 10.086752
131.031940 106.481491 9.941083
131.741166 104.773335 9.890603
133.154233 103.358857 9.775727
134.413086 101.880034 9.674961
135.276526 100.236224 9.610372
136.689592 98.821746 9.495496
137.409740 97.118147 9.444017
138.811885 95.699113 9.330141
139.407510 93.943556 9.290054
140.230336 92.282800 9.229180
140.939562 90.574644 9.178700
142.352629 89.160166 9.063825
142.407667 87.179049 9.073196
143.406552 85.591753 8.996215
144.405436 84.004458 8.919234
144.485691 82.033862 8.926298
145.407824 80.414542 8.856339
145.904142 78.617549 8.825338
147.317209 77.203072 8.710462
147.409097 75.237330 8.716463
148.407982 73.650034 8.639481
148.411485 71.647414 8.653568
148.746430 69.783088 8.637331
149.413873 68.057498 8.590674
149.417376 66.054877 8.604760
150.170266 64.364940 8.550285
150.419764 62.464961 8.541866
150.884876 60.654948 8.513720
151.422151 58.875045 8.478971
151.425655 56.872424 8.493058
151.429158 54.869803 8.507145
152.314097 53.234964 8.440588
152.431546 51.279887 8.444250
151.840526 49.523633 8.509176
151.441721 47.687726 8.557665
152.440606 46.100431 8.480684
152.444109 44.097810 8.494770
152.447612 42.095190 8.508857
152.451115 40.092569 8.522944
152.454618 38.089948 8.537031
152.458121 36.087328 8.551118
152.461625 34.084707 8.565205
151.732711 32.385596 8.641922
151.471800 30.492546 8.678619
151.475303 28.489926 8.692706
151.478806 26.487305 8.706793
150.485479 24.897765 8.806121
150.488982 22.895144 8.820208
150.492485 20.892524 8.834295
149.629446 19.248993 8.922481
149.502661 17.300363 8.947709
149.506164 15.297742 8.961796
148.929436 13.535565 9.025500
148.516339 11.705581 9.075211
147.523012 10.116041 9.174539
147.526515 8.113420 9.188626
146.821315 6.404482 9.263315
146.118068 4.694734 9.337838
145.414821 2.984986 9.412360
144.550035 1.342179 9.500697
144.008327 -0.434510 9.561406
143.560211 -2.249982 9.614111
143.306699 -4.146097 9.650176
141.898586 -5.563753 9.784973
141.577059 -7.431683 9.826854
141.196958 -9.275341 9.873744
140.493711 -10.985089 9.948266
139.593906 -12.613384 10.039597
138.600579 -14.202925 10.138925
137.679105 -15.822241 10.232108
136.975858 -17.531988 10.306631
136.129283 -18.895994 10.391351
134.626244 -19.975315 10.532116
133.868262 -21.662381 10.611319
133.165015 -23.372129 10.685842
132.461768 -25.081876 10.760364
131.649764 -26.746556 10.844187
130.656437 -28.336096 10.943515
129.663109 -29.925637 11.042843
128.943915 -31.628776 11.118729
128.240668 -33.338524 11.193251
126.832555 -34.756180 11.328048
126.129308 -36.465928 11.402571
125.314979 -37.907718 11.484997
123.724959 -38.886572 11.632737
123.021712 -40.596320 11.707259
121.715464 -42.056188 11.833346
120.910353 -43.723724 11.916579
119.728808 -45.235268 12.032002
118.506004 -46.144368 12.146745
117.741129 -47.828578 12.226537
116.394644 -49.271772 12.356064
114.986532 -50.689428 12.490861
114.283285 -52.399176 12.565384
112.582182 -53.110073 12.721027
111.776635 -54.777428 12.804297
110.470823 -56.237477 12.930347
109.767576 -57.947224 13.004869
108.177738 -58.926517 13.152596
106.658361 -60.075777 13.295309
105.812142 -61.726278 13.382058
104.434018 -62.930638 13.512668
102.845899 -63.914077 13.660272
101.834304 -65.496047 13.761162
100.734540 -67.041481 13.869592
99.109772 -67.936515 14.019804
97.625325 -69.170034 14.160032
96.863138 -70.855357 14.239595
95.513965 -72.297438 14.369352
93.812863 -73.008334 14.524995
92.404750 -74.425990 14.659792
90.703648 -75.136887 14.815435
89.295535 -76.554543 14.950232
88.592288 -78.264290 15.024755
87.184176 -79.681946 15.159552
85.483074 -80.392843 15.315195
84.074961 -81.810499 15.449992
82.373859 -82.521395 15.605635
80.965746 -83.939051 15.740433
79.392480 -84.958319 15.886980
77.856531 -86.067604 16.030873
76.448418 -87.485260 16.165670
74.747316 -88.196156 16.321313
73.339203 -89.613812 16.456110
71.638101 -90.324709 16.611753
70.229989 -91.742365 16.746551
68.743153 -92.970123 16.886949
67.120774 -93.870917 17.036991
65.167753 -93.974128 17.210558
63.718569 -95.292710 17.348277
62.017467 -96.003607 17.503920
60.609354 -97.421263 17.638718
59.201241 -98.838919 17.773515
57.265127 -98.982910 17.945879
55.684602 -99.984667 18.092943
54.097935 -100.971608 18.240444
52.523551 -101.988180 18.387071
50.695730 -102.393401 18.551731
48.994628 -103.104298 18.707374
47.586515 -104.521954 18.842171
45.787100 -104.995698 19.004809
44.184311 -105.943747 19.153457
42.626050 -106.999211 19.298937
40.782106 -107.365540 19.464744
39.050649 -108.003215 19.622547
37.086912 -108.080574 19.796876
35.678799 -109.498230 19.931673
33.894724 -110.008976 20.093220
32.276595 -110.920023 20.242960
30.733673 -112.012489 20.387348
28.874390 -112.341816 20.554246
27.158273 -113.016493 20.710958
25.179196 -113.056849 20.886379
23.582873 -114.020497 21.034567
21.776991 -114.478642 21.197665
20.007472 -115.024502 21.358176
18.374787 -115.900435 21.508952
16.432072 -116.028506 21.681785
14.851547 -117.030263 21.828850
12.856672 -117.032510 22.005395
10.984398 -117.330502 22.173217
9.281271 -118.036515 22.329004
7.582194 -118.752295 22.484503
5.705871 -119.040519 22.652613
3.710996 -119.042767 22.829158
1.892908 -119.471466 22.993125
0.135595 -120.046771 23.152767
-1.509297 -120.893259 23.304411
-3.439805 -121.050775 23.476377
-5.434680 -121.053023 23.652922
-7.429555 -121.055271 23.829467
-9.192675 -121.616567 23.989522
-11.004955 -122.059275 24.153076
-12.999831 -122.061523 24.329621
-14.994706 -122.063770 24.506166
-16.989581 -122.066018 24.682711
-18.577155 -123.050771 24.830277
-20.564981 -123.070022 25.006320
-22.559856 -123.072270 25.182865
-24.554731 -123.074518 25.359410
-26.549607 -123.076765 25.535955
-28.544482 -123.079013 25.712500
-30.539357 -123.081261 25.889045
-32.534232 -123.083509 26.065591
-34.529107 -123.085756 26.242136
28.301135 -97.685466 24.628389
26.715580 -96.693473 24.802789
24.717443 -96.702006 24.959919
22.719306 -96.710538 25.117049
21.133751 -95.718545 25.291450
19.483715 -94.882920 25.463151
17.550059 -94.735085 25.622980
15.781703 -94.186388 25.789728
13.966366 -93.751624 25.954510
12.079691 -93.489857 26.116306
10.382674 -92.768163 26.286041
8.384537 -92.776696 26.443170
6.386400 -92.785228 26.600300
4.800844 -91.793235 26.774701
2.970531 -91.394788 26.938856
1.217152 -90.809775 27.106231
0.265080 -89.695238 27.236781
-1.369980 -88.823295 27.409109
-3.145193 -88.291228 27.575571
-4.558589 -86.881745 27.757178
-6.539228 -86.847842 27.915040
-8.124783 -85.855849 28.089441
-9.710338 -84.863856 28.263841
-10.674314 -83.778184 28.393893
-12.297470 -82.877376 28.566719
-13.883026 -81.885384 28.741120
-15.497983 -80.964692 28.914290
-17.203119 -80.262687 29.083685
-18.908255 -79.560682 29.253080
-20.321652 -78.151199 29.434687
-21.810802 -76.925419 29.613123
-23.440185 -76.039711 29.785689
-24.543338 -75.085286 29.920182
-25.983489 -73.946947 30.090402
-27.559034 -72.930677 30.265221
-29.154600 -71.962961 30.439203
-29.972746 -70.523648 30.575359
-31.677882 -69.821643 30.744754
-32.521100 -68.173077 30.893303
-33.916282 -66.989476 31.062230
-35.504991 -66.005131 31.236499
-37.210127 -65.303126 31.405893
-37.918703 -63.598102 31.546636
-39.332100 -62.188619 31.728243
-40.498863 -61.260867 31.866424
-41.745813 -59.781591 32.038381
-43.434631 -59.040013 32.208459
-44.159525 -57.374562 32.348519
-45.485322 -55.928347 32.525047
-46.281498 -54.260055 32.670869
-47.986634 -53.558050 32.840263
-48.695210 -51.853026 32.981006
-50.108607 -50.443543 33.162613
-50.817183 -48.738519 33.303356
-52.230580 -47.329036 33.484963
-53.463999 -46.429234 33.627009
-54.644292 -44.922007 33.795101
-55.458948 -43.261464 33.941994
-56.766265 -41.807500 34.117451
-57.474841 -40.102476 34.258194
-58.888238 -38.692993 34.439801
-59.596814 -36.987969 34.580544
-60.446323 -35.342040 34.729457
-61.718787 -33.873462 34.902893
-62.441272 -32.174271 35.044443
-63.840760 -30.758955 35.225243
-64.436222 -29.006501 35.359428
-64.553091 -27.053367 35.465864
-65.966488 -25.643884 35.647472
-66.675064 -23.938860 35.788214
-68.088461 -22.529377 35.969822
-68.797037 -20.824353 36.110564
-69.424304 -19.085235 36.246593
-69.509369 -17.118764 36.351185
-70.922765 -15.709281 36.532793
-71.419961 -13.915623 36.661280
-71.635097 -12.003693 36.773414
-73.048494 -10.594210 36.955021
-73.415619 -8.746011 37.075967
-73.760825 -6.888621 37.195642
-74.413801 -5.160283 37.333161
-75.177978 -3.478573 37.477127
-75.886554 -1.773549 37.617870
-76.409459 0.009329 37.747848
-76.410167 2.011171 37.847550
-77.307461 3.637063 37.999234
-77.408349 5.596898 38.104744
-78.405824 7.180783 38.262236
-78.406532 9.182626 38.361938
-78.407240 11.184468 38.461640
-79.404715 12.768353 38.619132
-79.405422 14.770196 38.718834
-79.448211 16.754393 38.820975
-80.403605 18.355923 38.976028
-80.404313 20.357765 39.075730
-80.405021 22.359608 39.175431
-80.872874 24.165570 39.302217
-81.403203 25.945335 39.432626
-80.517536 27.583186 39.444318
-80.407559 29.539576 39.533029
-80.408267 31.541419 39.632731
-81.405742 33.125304 39.790223
-81.406450 35.127146 39.889925
-81.407158 37.128989 39.989627
-81.407866 39.130831 40.089328
-81.408573 41.132674 40.189030
-81.409281 43.134516 40.288731
-81.409989 45.136359 40.388433
-80.413637 46.728757 40.389135
-80.414345 48.730600 40.488836
-80.415053 50.732442 40.588538
-79.660824 52.424269 40.613281
-78.953455 54.135339 40.642676
-78.423058 55.919082 40.689643
-78.423765 57.920925 40.789345
-78.424473 59.922767 40.889047
-78.425181 61.924610 40.988748
-77.531697 63.559251 40.999664
-76.824329 65.270322 41.029060
-76.433185 67.111250 41.089854
-76.114620 68.981982 41.157854
-74.702224 70.403532 41.117246
-74.441190 72.297890 41.190959
-73.287488 73.825673 41.176037
-72.448487 75.482687 41.192363
-71.452135 77.075086 41.193065
-70.460356 78.669363 41.194221
-69.752988 80.380433 41.223616
-69.460139 82.261726 41.294170
-68.463788 83.854125 41.294872
-67.338644 84.808659 41.253667
-66.470877 86.453861 41.267137
-65.474526 88.046260 41.267839
-64.511512 89.652349 41.271851
-63.099116 91.073899 41.231243
-61.686721 92.495448 41.190635
-60.979352 94.206518 41.220031
-59.274718 94.923084 41.121287
-58.499149 96.606147 41.143911
-57.010770 97.707881 41.081393
-55.450319 98.772269 41.011332
-54.037923 100.193818 40.970724
-52.625528 101.615368 40.930116
-51.084663 102.727004 40.863952
-49.508497 103.753483 40.790765
-47.914965 104.738066 40.714124
-46.330116 105.743597 40.639210
-44.686832 106.608163 40.552671
-43.160418 107.754659 40.489382
-41.162281 107.763192 40.332252
-39.572928 108.757859 40.256442
-37.992583 109.774254 40.182424
-35.994446 109.782786 40.025294
-34.459025 110.907554 39.960213
-32.824748 111.793848 39.875466
-30.826611 111.802380 39.718336
-28.828474 111.810913 39.561207
-27.243625 112.816444 39.486293
-25.351374 113.080411 39.350227
-23.660639 113.830507 39.254249
-21.942105 114.513541 39.152741
-20.077653 114.844571 39.022205
-18.079516 114.853103 38.865075
-16.081379 114.861635 38.707945
-14.083242 114.870168 38.550816
-12.085105 114.878700 38.393686
-10.086968 114.887232 38.236556
-8.088831 114.895765 38.079426
-6.090693 114.904297 37.922297
-4.092556 114.912830 37.765167
-2.094419 114.921362 37.608037
-0.268441 114.512404 37.443701
1.489273 113.937901 37.276507
3.433571 113.815872 37.117123
5.072965 112.954441 36.944976
7.071102 112.962973 36.787847
8.656658 111.970980 36.613446
10.654795 111.979513 36.456316
12.652932 111.988045 36.299187
14.651069 111.996577 36.142057
16.244743 111.024273 35.967996
17.949879 110.322268 35.798601
19.820316 110.021124 35.636126
21.249488 109.457003 35.495355
22.407449 108.034644 35.333248
24.357343 107.926186 35.174099
25.991141 107.051184 35.001717
27.767615 106.522176 34.835309
29.181012 105.112693 34.653702
30.886148 104.410688 34.484307
32.745944 104.083737 34.321386
34.331499 103.091745 34.146985
36.001557 102.304673 33.976122
37.915191 102.108284 33.815455
38.707008 100.605122 33.678197
40.412145 99.903117 33.508802
42.087879 99.129812 33.338176
43.673434 98.137819 33.163776
44.530993 96.794084 33.029269
46.236129 96.092079 32.859875
47.846122 95.159346 32.686497
49.354662 93.980591 32.508873
51.017232 93.175360 32.337696
52.473195 91.869103 32.157870
53.886592 90.459620 31.976263
55.151621 89.573072 31.832385
56.362893 88.204370 31.668746
58.005441 87.350586 31.496731
59.534003 86.220384 31.319944
60.419153 84.943557 31.186593
61.832550 83.534074 31.004986
63.129383 82.660862 30.859264
64.246262 81.127045 30.694848
65.881241 80.254907 30.522517
67.118367 78.912227 30.358134
68.073371 77.310533 30.203104
69.641347 76.275909 30.027967
70.487083 74.903504 29.892966
71.900480 73.494021 29.711359
73.313877 72.084538 29.529752
74.727274 70.675055 29.348144
75.435850 68.970031 29.207402
76.849247 67.560548 29.025794
77.557823 65.855524 28.885052
78.971220 64.446041 28.703444
80.083711 63.495532 28.568410
81.384932 62.039012 28.393307
82.093508 60.333988 28.252564
83.076135 58.743878 28.095932
84.215481 57.219482 27.930214
85.071085 55.576108 27.780947
86.337454 54.104975 27.607864
87.066034 52.408339 27.465962
88.459427 50.990468 27.285514
89.168003 49.285444 27.144772
90.058459 47.656684 26.993484
91.055934 46.072800 26.835991
91.293731 44.170372 26.722543
92.054116 42.487072 26.578797
93.415704 41.055865 26.400193
94.124280 39.350841 26.259451
95.537677 37.941358 26.077843
96.044015 36.151533 25.948826
96.250009 34.235770 25.837222
97.663405 32.826286 25.655615
98.039673 30.981921 25.534139
98.375737 29.120698 25.414994
99.037856 27.396194 25.276945
99.792889 25.710650 25.133509
100.501465 24.005626 24.992766
101.033513 22.226582 24.862258
101.918617 20.595579 24.711280
102.031696 18.640855 24.605064
102.630949 16.889990 24.470659
103.029878 15.055127 24.347869
104.027353 13.471242 24.190377
104.028061 11.469400 24.090675
104.760433 9.774354 23.948553
105.026244 7.883673 23.833481
105.026951 5.881830 23.733779
105.027659 3.879988 23.634078
106.025134 2.296103 23.476585
106.025842 0.294260 23.376884
106.026550 -1.707582 23.277182
106.027258 -3.709425 23.177480
106.027965 -5.711267 23.077779
106.203873 -7.639646 22.967919
107.026148 -9.296994 22.820584
107.026856 -11.298837 22.720883
107.027564 -13.300679 22.621181
107.028272 -15.302522 22.521480
107.632291 -17.051388 22.386799
108.026454 -18.888249 22.264285
108.027162 -20.890092 22.164584
108.027870 -22.891934 22.064882
108.028578 -24.893777 21.965181
107.702586 -26.761460 21.897917
107.032934 -28.488018 21.864777
106.992878 -30.473121 21.769123
106.037290 -32.082259 21.764374
106.037998 -34.084102 21.664672
105.041646 -35.676500 21.663970
105.042354 -37.678343 21.564268
105.043062 -39.680185 21.464567
104.158723 -41.318583 21.452743
104.047418 -43.274427 21.364163
103.449015 -45.030243 21.323949
103.051774 -46.868668 21.263760
102.739306 -48.741904 21.195154
102.056130 -50.462909 21.163356
101.324569 -52.164045 21.136363
101.060486 -54.057150 21.062953
100.064135 -55.649549 21.062251
99.202465 -57.297255 21.048176
98.495097 -59.008325 21.018781
97.787728 -60.719395 20.989385
96.375333 -62.140945 21.029993
95.667964 -63.852015 21.000598
94.960596 -65.563085 20.971202
94.086732 -67.205784 20.958338
92.548593 -67.990721 21.040550
91.841225 -69.701791 21.011154
91.097470 -71.397919 20.985371
89.721461 -72.834411 21.022366
88.976508 -74.454813 21.000448
87.309458 -75.262046 21.091714
86.602090 -76.973116 21.062318
84.897456 -77.689682 21.161062
84.121887 -79.372745 21.138438
82.633508 -80.474479 21.200956
81.073057 -81.538867 21.271017
80.135565 -83.155436 21.264471
78.661054 -83.966502 21.340364
77.248658 -85.388052 21.380972
75.544024 -86.104617 21.479715
74.121681 -87.502170 21.522302
72.426993 -88.242732 21.619066
70.951983 -89.513233 21.672130
69.309963 -90.380847 21.758417
67.368997 -90.527296 21.904174
65.784148 -91.532827 21.979088
64.196059 -92.530542 22.054647
62.491425 -93.247107 22.153390
60.616313 -93.552421 22.286046
59.031464 -94.557952 22.360960
57.033327 -94.566485 22.518090
55.380647 -95.408384 22.606497
53.450341 -95.580548 22.750134
51.452204 -95.589081 22.907263
49.454067 -95.597613 23.064393
47.869218 -96.603144 23.139307
45.871081 -96.611676 23.296437
43.872944 -96.620209 23.453567
41.874807 -96.628741 23.610696
39.876670 -96.637273 23.767826
37.993264 -96.922578 23.902132
36.293684 -97.651337 23.999870
34.295547 -97.659869 24.157000
32.297410 -97.668402 24.314129
30.299273 -97.676934 24.471259
13.524244 -57.226143 66.794228
11.919598 -56.268350 67.013178
9.925098 -56.320273 67.239875
7.930599 -56.372197 67.466572
5.936100 -56.424121 67.693269
4.331454 -55.466328 67.912219
2.336955 -55.518251 68.138917
0.405215 -55.407630 68.364366
-1.262190 -54.612382 68.584564
-3.256689 -54.664306 68.811261
-4.861335 -53.706513 69.030211
-6.855834 -53.758436 69.256908
-8.460480 -52.800643 69.475858
-10.454980 -52.852567 69.702555
-12.162479 -52.161163 69.923549
-13.879101 -51.493389 70.144725
-15.595724 -50.825614 70.365900
-17.263417 -50.031112 70.586103
-19.257916 -50.083036 70.812800
-20.862562 -49.125243 71.031750
-22.467208 -48.167450 71.250700
-24.178837 -47.486741 71.471776
-25.895459 -46.818967 71.692951
-27.336414 -45.437215 71.908649
-29.053036 -44.769440 72.129824
-30.493991 -43.387688 72.345522
-32.484937 -43.430409 72.572148
-33.927236 -42.052139 72.787872
-35.643859 -41.384365 73.009047
-37.084814 -40.002613 73.224745
-38.525768 -38.620861 73.440442
-40.118314 -37.631728 73.659152
-41.683346 -36.571334 73.877315
-43.124300 -35.189582 74.093012
-44.565255 -33.807830 74.308709
-46.006210 -32.426078 74.524407
-47.447165 -31.044326 74.740104
-48.690258 -29.574199 74.936357
-49.633045 -27.969936 75.103097
-50.745565 -26.441486 75.286517
-51.818925 -24.895546 75.466089
-52.800871 -23.308774 75.636678
-53.828524 -21.742418 75.811758
-54.749730 -20.128517 75.976377
-55.494655 -18.435878 76.123673
-56.239580 -16.743240 76.270968
-56.984505 -15.050602 76.418263
-57.982455 -13.470978 76.590424
-58.474356 -11.665325 76.712853
-59.053427 -9.898606 76.843849
-59.964206 -8.280048 77.007444
-60.124399 -6.326234 77.097275
-60.167717 -4.320218 77.175620
-61.195370 -2.753862 77.350700
-61.238689 -0.747847 77.429045
-61.282008 1.258169 77.507390
-61.325326 3.264185 77.585735
-61.368645 5.270201 77.664080
-61.411963 7.276217 77.742425
-61.108047 9.147822 77.776056
-60.496395 10.900306 77.770058
-60.539713 12.906322 77.848403
-59.803634 14.610641 77.826383
-59.624145 16.530410 77.876036
-59.170249 18.343959 77.890353
-58.499222 20.073460 77.876710
-57.749688 21.772571 77.852957
-56.790801 23.390643 77.802244
-55.831914 25.008716 77.751532
-55.106451 26.717144 77.730879
-54.435424 28.446645 77.717235
-53.764398 30.176145 77.703592
-52.384705 31.631328 77.598691
-51.713679 33.360829 77.585048
-50.333986 34.816012 77.480147
-49.119702 36.335223 77.396546
-48.283267 38.000695 77.361603
-46.903574 39.455878 77.256702
-45.523881 40.911061 77.151801
-44.144188 42.366244 77.046901
-42.764495 43.821427 76.942000
-41.078625 44.577780 76.776444
-39.698932 46.032963 76.671543
-38.319239 47.488146 76.566643
-36.710167 48.419785 76.416301
-35.253677 49.699682 76.296186
-33.587167 50.500222 76.134465
-31.881938 51.212388 75.965074
-30.464167 52.580659 75.852630
-28.816376 53.423924 75.694617
-27.341166 54.661096 75.570794
-25.750814 55.635460 75.424161
-24.064944 56.391813 75.258605
-22.379075 57.148166 75.093049
-20.662166 57.833675 74.921344
-18.701159 57.962042 74.701282
-17.106167 58.925817 74.553729
-15.544667 59.966035 74.412812
-13.949728 60.929931 74.265269
-11.988667 61.058177 74.045197
-10.271812 61.743807 73.873502
-8.432668 62.150319 73.677582
-6.593897 62.557683 73.481735
-4.876669 63.242462 73.309967
-2.915982 63.371560 73.089969
-1.320669 64.334604 72.942352
0.673830 64.386527 72.715655
2.447803 64.941789 72.532646
4.229829 65.478669 72.348041
6.224328 65.530593 72.121343
8.218827 65.582517 71.894646
10.109810 65.870711 71.688456
11.774827 66.674659 71.527032
13.769326 66.726582 71.300335
15.763825 66.778506 71.073637
17.758324 66.830429 70.846940
19.752823 66.882353 70.620243
21.747322 66.934277 70.393546
23.741821 66.986200 70.166849
25.736321 67.038124 69.940152
27.730820 67.090047 69.713455
29.448547 66.425133 69.492258
31.329965 66.184178 69.267808
33.324464 66.236102 69.041111
35.318963 66.288025 68.814414
37.142040 65.895967 68.591123
38.918108 65.382156 68.368766
40.912607 65.434080 68.142069
42.567576 64.606621 67.922119
44.511753 64.528210 67.696422
46.276488 63.985049 67.474291
48.110898 63.622341 67.250775
49.985401 63.363478 67.026462
51.710043 62.716472 66.805128
53.418646 62.027928 66.584112
55.309188 61.810603 66.359480
56.913834 60.852810 66.140530
58.844182 60.738582 65.915108
60.512979 59.946940 65.694883
62.277427 59.403033 65.472757
63.994049 58.735258 65.251582
65.710672 58.067484 65.030407
67.321416 57.125485 64.811335
68.926062 56.167692 64.592385
70.584872 55.350183 64.372359
72.135354 54.252107 64.154485
73.742449 53.300656 63.935486
75.183404 51.918904 63.719789
76.900026 51.251130 63.498614
78.553938 50.420935 63.278684
80.057604 49.201603 63.061741
81.498559 47.819851 62.846043
83.215181 47.152077 62.624868
84.656136 45.770325 62.409171
86.097091 44.388573 62.193473
87.538045 43.006821 61.977776
88.979000 41.625069 61.762079
89.936577 40.027413 61.593885
91.164880 38.550679 61.399086
92.605835 37.168927 61.183389
93.350760 35.476288 61.036094
94.791715 34.094536 60.820396
95.536640 32.401898 60.673101
96.281565 30.709260 60.525806
97.130149 29.062921 60.368323
98.157802 27.496565 60.193243
99.185455 25.930209 60.018163
99.957295 24.249592 59.868223
100.702221 22.556954 59.720927
101.284080 20.791481 59.589657
101.496041 18.860790 59.494739
102.355052 17.219109 59.336232
102.398371 15.213093 59.257887
103.034787 13.471989 59.121255
103.469342 11.640721 59.004462
103.512661 9.634705 58.926117
103.555980 7.628689 58.847772
103.599298 5.622673 58.769426
103.642617 3.616657 58.691081
103.685936 1.610641 58.612736
102.727048 -0.007431 58.663449
102.770367 -2.013447 58.585104
102.745794 -3.993183 58.515501
101.854798 -5.637535 58.557471
101.403741 -7.452184 58.542788
100.939229 -9.261624 58.529838
100.061689 -10.911185 58.570075
99.390662 -12.640685 58.583718
98.719636 -14.370186 58.597362
98.048610 -16.099686 58.611005
97.146998 -17.739929 58.654342
96.188111 -19.358002 58.705054
95.326864 -21.013870 58.743193
94.270336 -22.594147 58.806479
93.276145 -24.198553 58.861737
92.352561 -25.830292 58.907903
91.225426 -27.383237 58.980281
89.845733 -28.838420 59.085182
88.466040 -30.293603 59.190083
87.086347 -31.748786 59.294983
85.706654 -33.203969 59.399884
84.211232 -34.395006 59.527711
82.641092 -35.415505 59.670341
81.261399 -36.870688 59.775241
79.575529 -37.627041 59.940797
77.965231 -38.555880 60.091382
76.509967 -39.838577 60.211254
75.130274 -41.293760 60.316155
73.444405 -42.050113 60.481711
72.064712 -43.505296 60.586611
70.378842 -44.261649 60.752167
68.692973 -45.018002 60.917723
67.034729 -45.837409 61.077806
65.473229 -46.877628 61.218724
63.911729 -47.917846 61.359642
61.949495 -48.043414 61.579947
60.355729 -49.009988 61.727256
58.577756 -49.556120 61.911059
56.799730 -50.102130 62.094871
55.206018 -51.068826 62.242170
53.243731 -51.194273 62.462486
51.682230 -52.234491 62.603404
49.687731 -52.286415 62.830101
48.126231 -53.326633 62.971018
46.131732 -53.378557 63.197716
44.478448 -54.209284 63.356816
42.575733 -54.470699 63.565330
40.581234 -54.522622 63.792027
39.019733 -55.562841 63.932945
37.025234 -55.614764 64.159642
35.030735 -55.666688 64.386339
33.036236 -55.718612 64.613036
31.452656 -56.708435 64.758328
29.480237 -56.810754 64.980651
27.485737 -56.862677 65.207348
25.491238 -56.914601 65.434045
23.496739 -56.966525 65.660742
21.502240 -57.018448 65.887440
19.507741 -57.070372 66.114137
17.513242 -57.122295 66.340834
15.518743 -57.174219 66.567531
7.742905 -104.817240 102.329085
6.134439 -103.873268 102.549572
4.143660 -103.941918 102.767282
2.152881 -104.010568 102.984993
0.162103 -104.079217 103.202703
-1.828676 -104.147867 103.420414
-3.437142 -103.203895 103.640901
-5.427921 -103.272545 103.858612
-7.418700 -103.341194 104.076322
-9.083457 -102.546318 104.296401
-11.017945 -102.465872 104.514520
-13.008723 -102.534522 104.732231
-14.782356 -102.028022 104.951518
-16.607968 -101.659200 105.170428
-18.491510 -101.443813 105.388918
-20.207213 -100.783878 105.608626
-22.197992 -100.852527 105.826337
-23.806458 -99.908555 106.046824
-25.797237 -99.977205 106.264534
-27.405703 -99.033233 106.485022
-29.348637 -98.975157 106.703080
-31.004948 -98.157911 106.923219
-32.995727 -98.226561 107.140930
-34.604193 -97.282589 107.361417
-36.496609 -97.090709 107.579842
-38.203438 -96.407267 107.799615
-39.935428 -95.790469 108.019205
-41.654837 -95.140349 108.238886
-43.411149 -94.587973 108.458300
-45.093656 -93.840109 108.678249
-46.813065 -93.189989 108.897930
-48.618860 -92.768679 109.116984
-50.251883 -91.889749 109.337293
-51.971292 -91.239629 109.556975
-53.690702 -90.589509 109.776656
-55.410111 -89.939389 109.996338
-57.043504 -89.061441 110.216644
-58.651971 -88.117469 110.437131
-60.298003 -87.272998 110.657345
-62.017412 -86.622878 110.877026
-63.736821 -85.972758 111.096708
-65.185895 -84.606606 111.318353
-66.905304 -83.956486 111.538034
-68.624713 -83.306366 111.757715
-70.073787 -81.940215 111.979360
-71.793196 -81.290095 112.199042
-73.242270 -79.923944 112.420686
-74.961679 -79.273824 112.640368
-76.410752 -77.907672 112.862012
-78.130162 -77.257552 113.081694
-79.579235 -75.891401 113.303339
-81.028309 -74.525249 113.524983
-82.477382 -73.159098 113.746628
-84.005118 -72.001298 113.967701
-85.645865 -71.142826 114.187954
-87.094939 -69.776675 114.409599
-88.544012 -68.410523 114.631244
-89.993086 -67.044372 114.852888
-91.442159 -65.678220 115.074533
-92.891233 -64.312069 115.296178
-94.340306 -62.945917 115.517822
-95.789380 -61.579766 115.739467
-96.544504 -59.896956 115.898281
-97.993577 -58.530804 116.119926
-99.442651 -57.164652 116.341570
-100.197775 -55.481842 116.500384
-101.646848 -54.115691 116.722029
-102.401972 -52.432881 116.880842
-103.851046 -51.066729 117.102487
-104.606170 -49.383919 117.261301
-106.055243 -48.017768 117.482946
-106.810367 -46.334957 117.641759
-107.565491 -44.652147 117.800573
-109.014565 -43.285996 118.022218
-109.769689 -41.603186 118.181031
-110.524813 -39.920375 118.339845
-111.551008 -38.361259 118.523202
-112.035061 -36.554755 118.657472
-112.790185 -34.871945 118.816286
-113.689356 -33.254866 118.988142
-114.300433 -31.506325 119.133913
-114.787790 -29.701329 119.268483
-115.116731 -27.824046 119.388710
-115.886225 -26.147793 119.548824
-116.626979 -24.458426 119.706337
-116.984659 -22.594256 119.829166
-117.043180 -20.593577 119.924908
-118.083094 -19.040720 120.109507
-118.141614 -17.040040 120.205249
-118.200135 -15.039361 120.300992
-119.075874 -13.411589 120.470726
-119.298569 -11.485824 120.581333
-119.357090 -9.485145 120.677075
-119.415611 -7.484465 120.772818
-119.474132 -5.483785 120.868560
-119.532653 -3.483106 120.964303
-119.591173 -1.482426 121.060045
-119.649694 0.518254 121.155787
-119.708215 2.518934 121.251530
-118.761149 4.140309 121.218833
-118.819670 6.140989 121.314576
-118.878190 8.141668 121.410318
-117.944720 9.768172 121.379358
-117.989645 11.763723 121.473364
-118.048166 13.764403 121.569107
-117.101100 15.385778 121.536410
-116.745812 17.230371 121.579299
-116.212555 19.007834 121.599457
-116.146358 20.961470 121.679269
-115.324010 22.629889 121.662503
-114.376944 24.251264 121.629807
-114.180592 26.155807 121.692995
-113.488399 27.873319 121.692853
-112.541333 29.494694 121.660156
-112.214826 31.350143 121.706721
-111.559570 33.081588 121.711296
-110.193257 34.544825 121.625052
-109.538002 36.276271 121.629627
-108.811589 37.980876 121.625114
-107.516434 39.470953 121.547958
-106.861178 41.202398 121.552533
-105.494866 42.665635 121.466289
-104.839610 44.397081 121.470864
-103.473298 45.860317 121.384619
-102.818042 47.591763 121.389195
-101.451729 49.055000 121.302950
-100.085417 50.518236 121.216705
-98.719104 51.981473 121.130461
-98.063849 53.712919 121.135036
-96.697536 55.176155 121.048792
-95.331223 56.639392 120.962547
-93.964911 58.102629 120.876303
-92.598598 59.565866 120.790058
-91.232285 61.029103 120.703813
-89.865973 62.492340 120.617569
-88.416624 63.770137 120.513843
-86.821710 64.722850 120.379472
-85.455397 66.186087 120.293228
-84.089085 67.649324 120.206983
-82.722772 69.112561 120.120739
-81.107060 70.018826 119.981989
-79.678510 71.343072 119.882642
-78.006945 72.124606 119.732134
-76.634247 73.573582 119.644545
-74.956297 74.340856 119.492693
-73.589985 75.804093 119.406449
-71.912035 76.571367 119.254596
-70.256659 77.389055 119.107497
-68.867772 78.801878 119.016500
-67.189822 79.569152 118.864648
-65.606488 80.547725 118.732714
-64.056431 81.600615 118.607787
-62.467610 82.566936 118.474699
-60.789660 83.334210 118.322847
-59.111710 84.101484 118.170995
-57.433761 84.868758 118.019142
-55.865423 85.880824 117.890367
-54.315366 86.933714 117.765439
-52.399911 87.170580 117.563586
-50.774530 88.055253 117.422801
-49.224473 89.108143 117.297874
-47.366062 89.472402 117.108030
-45.688112 90.239675 116.956177
-44.133580 91.282573 116.830308
-42.332212 91.774223 116.652473
-40.592744 92.404112 116.487670
-38.976312 93.308771 116.348769
-37.051908 93.525652 116.145032
-35.308776 94.147356 115.979457
-33.511072 94.647191 115.802394
-31.952876 95.681904 115.675753
-29.970237 95.768731 115.459756
-28.285339 96.520489 115.306441
-26.429401 96.890270 115.117118
-24.617802 97.359074 114.937129
-22.888565 98.011810 114.774480
-20.950265 98.197659 114.567817
-19.347729 99.133350 114.431842
-17.356950 99.201999 114.214131
-15.366172 99.270649 113.996420
-13.816114 100.323539 113.871493
-11.825336 100.392188 113.653782
-9.834557 100.460838 113.436072
-8.269705 101.480687 113.308030
-6.293721 101.582378 113.093434
-4.302943 101.651027 112.875723
-2.312164 101.719677 112.658013
-0.321385 101.788327 112.440302
1.366593 102.533205 112.286339
3.219451 102.909866 112.097664
5.210229 102.978516 111.879953
7.201008 103.047166 111.662243
9.191787 103.115815 111.444532
11.182565 103.184465 111.226822
13.173344 103.253115 111.009111
15.164123 103.321764 110.791400
17.154901 103.390414 110.573690
19.145680 103.459064 110.355979
21.136459 103.527713 110.138269
23.127237 103.596363 109.920558
25.118016 103.665013 109.702847
27.108795 103.733663 109.485137
28.717261 102.789691 109.264650
30.708040 102.858340 109.046939
32.698818 102.926990 108.829229
34.689597 102.995640 108.611518
36.680376 103.064289 108.393807
38.342461 102.262336 108.173710
40.279621 102.188967 107.955610
42.270399 102.257617 107.737899
44.041360 101.744039 107.518592
45.869644 101.382295 107.299701
47.860423 101.450944 107.081991
49.740259 101.225742 106.863474
51.459668 100.575622 106.643793
53.450447 100.644272 106.426082
55.168822 99.991414 106.206393
57.049692 99.768950 105.987885
58.853151 100.255930 105.809610
59.508406 101.987376 105.814185
60.319879 103.659897 105.798807
60.818917 105.450267 105.823335
61.474173 107.181712 105.827911
62.155490 108.903327 105.829157
63.495741 110.376394 105.746241
64.862053 111.839631 105.659997
66.228366 113.302868 105.573752
67.877513 114.134466 105.427964
69.272629 115.533379 105.335656
70.638941 116.996616 105.249411
72.527685 117.293135 105.053182
74.077742 118.346025 104.928254
75.984428 118.602474 104.728247
77.618578 119.467565 104.585616
79.340328 120.137022 104.424543
81.159414 120.589104 104.242978
83.150192 120.657754 104.025267
85.140971 120.726404 103.807557
87.131750 120.795053 103.589846
89.122528 120.863703 103.372136
91.113307 120.932353 103.154425
93.104086 121.001003 102.936714
95.094864 121.069652 102.719004
96.954942 120.792117 102.500344
98.694109 120.194330 102.280806
100.664096 120.207908 102.062945
102.293354 119.319008 101.842608
104.102914 118.907668 101.623582
105.822324 118.257548 101.403900
107.501065 117.499714 101.183924
109.261142 116.957309 100.964537
110.980551 116.307189 100.744856
112.699961 115.657069 100.525175
114.317243 114.736448 100.304752
115.925709 113.792476 100.084264
117.587853 112.990677 99.864167
119.036926 111.624526 99.642522
120.751108 110.960560 99.422803
122.205409 109.608254 99.201196
123.654482 108.242103 98.979552
125.194194 107.116023 98.758565
126.129016 105.909173 98.601056
127.578089 104.543021 98.379412
129.027163 103.176870 98.157767
130.476236 101.810718 97.936122
131.925310 100.444567 97.714478
132.680434 98.761757 97.555664
134.095961 97.380298 97.337056
134.884631 95.712795 97.175205
135.639755 94.029985 97.016392
136.394879 92.347175 96.857578
137.274223 90.721048 96.687517
137.905127 88.981554 96.539951
138.372658 87.167511 96.407176
139.412571 85.614655 96.222577
139.471092 83.613975 96.126835
139.529613 81.613295 96.031092
139.588133 79.612616 95.935350
139.646654 77.611936 95.839608
139.705175 75.611256 95.743865
139.763696 73.610577 95.648123
139.089253 71.886369 95.645998
138.433998 70.154923 95.641423
137.778742 68.423478 95.636848
136.981019 66.745771 95.650469
136.033953 65.124395 95.683166
135.101918 63.497350 95.713942
133.735606 62.034113 95.800186
132.369293 60.570876 95.886431
132.245689 58.638894 95.813951
133.519673 57.192846 95.608159
134.968746 55.826695 95.386514
135.723870 54.143885 95.227700
137.172944 52.777733 95.006055
137.928068 51.094923 94.847242
139.377141 49.728772 94.625597
140.132265 48.045961 94.466783
141.546391 46.663863 94.248303
142.336463 44.997000 94.086325
143.091587 43.314190 93.927511
144.540660 41.948038 93.705867
145.295784 40.265228 93.547053
145.764566 38.451756 93.414165
146.804480 36.898899 93.229566
147.561156 35.216798 93.070612
147.902915 33.345363 92.949225
148.942828 31.792506 92.764626
149.826528 30.168367 92.594171
150.041263 28.238970 92.484285
150.642827 26.486088 92.339374
151.139697 24.685434 92.203943
152.153074 23.120468 92.021747
152.238132 21.131897 91.923602
152.296652 19.131217 91.827860
153.336566 17.578361 91.643261
153.395087 15.577681 91.547518
153.453607 13.577001 91.451776
154.493521 12.024145 91.267177
154.552042 10.023465 91.171435
154.610563 8.022785 91.075692
154.669083 6.022106 90.979950
154.727604 4.021426 90.884208
154.786125 2.020746 90.788465
154.844646 0.020067 90.692723
154.903167 -1.980613 90.596981
154.828813 -3.931173 90.518210
154.014621 -5.602668 90.533934
154.073142 -7.603348 90.438192
154.131663 -9.604027 90.342450
153.184597 -11.225403 90.375146
153.243118 -13.226083 90.279403
153.030452 -15.124471 90.218298
152.354572 -16.848138 90.216357
151.719941 -18.587362 90.209148
151.466027 -20.470193 90.153311
151.120487 -22.318462 90.109178
150.577482 -24.092248 90.090265
149.809976 -25.781353 90.100027
149.154721 -27.512798 90.095452
148.741871 -29.335678 90.059915
147.844210 -30.975689 90.086301
147.188954 -32.707134 90.081726
146.533699 -34.438580 90.077151
145.167386 -35.901817 90.163395
144.512131 -37.633262 90.158820
143.856875 -39.364708 90.154245
142.490562 -40.827944 90.240489
141.835307 -42.559390 90.235914
140.468994 -44.022627 90.322158
139.813739 -45.754072 90.317583
138.447426 -47.217309 90.403828
137.792171 -48.948754 90.399252
136.425858 -50.411991 90.485497
135.059545 -51.875228 90.571742
134.404290 -53.606673 90.567166
133.037977 -55.069910 90.653411
131.671664 -56.533147 90.739655
130.305352 -57.996384 90.825900
128.939039 -59.459621 90.912145
127.572726 -60.922857 90.998389
126.206414 -62.386094 91.084634
124.840101 -63.849331 91.170878
123.473788 -65.312568 91.257123
121.795839 -66.079842 91.408975
120.429526 -67.543079 91.495219
119.063213 -69.006316 91.581464
117.696901 -70.469552 91.667708
116.018951 -71.236826 91.819561
114.652638 -72.700063 91.905805
112.974688 -73.467337 92.057657
111.608376 -74.930574 92.143902
109.930426 -75.697848 92.295754
108.564113 -77.161085 92.381999
106.886163 -77.928358 92.533851
105.208213 -78.695632 92.685703
103.558302 -79.525523 92.831652
102.008245 -80.578413 92.956580
100.486001 -81.693417 93.075652
98.908130 -82.684192 93.206434
97.358073 -83.737082 93.331362
95.763789 -84.691202 93.465600
94.085839 -85.458476 93.617453
92.407889 -86.225750 93.769305
90.729939 -86.993023 93.921157
89.167066 -88.017291 94.048782
87.374040 -88.527571 94.224861
85.696090 -89.294845 94.376713
84.076173 -90.191721 94.516348
82.340190 -90.829393 94.680417
80.535337 -91.313260 94.858986
78.984290 -92.363941 94.984122
77.306341 -93.131215 95.135974
75.444444 -93.487690 95.326551
73.894387 -94.540580 95.451479
71.903608 -94.609229 95.669190
70.282904 -95.504348 95.808990
68.362772 -95.730769 96.011828
66.812715 -96.783659 96.136755
64.937417 -97.110206 96.330154
63.271879 -97.905198 96.479393
61.281100 -97.973848 96.697104
59.731043 -99.026738 96.822031
57.740265 -99.095388 97.039742
55.924394 -99.554650 97.220630
54.199429 -100.216927 97.382380
52.208650 -100.285577 97.600090
50.267270 -100.464546 97.807401
48.667814 -101.407116 97.942728
46.677035 -101.475766 98.160439
44.686257 -101.544416 98.378150
43.136200 -102.597306 98.503077
41.145421 -102.665955 98.720788
39.154642 -102.734605 98.938498
37.163864 -102.803255 99.156209
35.173085 -102.871904 99.373919
33.607536 -103.890197 99.502108
31.632249 -103.993444 99.716557
29.641470 -104.062094 99.934268
27.650692 -104.130743 100.151979
25.659913 -104.199393 100.369689
23.669134 -104.268043 100.587400
21.678356 -104.336692 100.805110
19.687577 -104.405342 101.022821
17.696798 -104.473992 101.240532
15.706020 -104.542641 101.458242
13.715241 -104.611291 101.675953
11.724462 -104.679941 101.893663
9.733684 -104.748590 102.111374
-72.038077 -163.102969 115.070347
-73.642935 -162.177738 115.378115
-75.621496 -162.268330 115.681013
-77.600057 -162.358922 115.983910
-79.204915 -161.433692 116.291679
-81.183476 -161.524284 116.594576
-83.110895 -161.475858 116.898141
-84.766895 -160.689645 117.205242
-86.537586 -160.215193 117.510849
-88.350314 -159.855007 117.815908
-89.964278 -158.954528 118.123558
-91.933733 -159.020369 118.426574
-93.538592 -158.095138 118.734343
-95.143450 -157.169907 119.042111
-96.817661 -156.433197 119.348975
-98.531007 -155.802865 119.655329
-99.980106 -154.454237 119.965127
-101.936586 -154.484808 120.268313
-103.406797 -153.193572 120.577836
-105.120143 -152.563239 120.884190
-106.569241 -151.214612 121.193988
-108.282587 -150.584279 121.500343
-109.731685 -149.235652 121.810141
-111.180784 -147.887024 122.119939
-112.629882 -146.538396 122.429737
-114.078980 -145.189769 122.739535
-115.528078 -143.841141 123.049333
-116.977177 -142.492513 123.359132
-118.426275 -141.143886 123.668930
-119.875373 -139.795258 123.978728
-121.324471 -138.446630 124.288526
-122.418949 -136.930971 124.553409
-123.534764 -135.425362 124.820994
-124.506180 -133.851739 125.070290
