ply
format ascii 1.0
element vertex 1066
property float x
property float y
property float z
end_header
-14.594058 -30.049731 64.113513
-16.263292 -29.176774 64.179277
-18.268786 -29.332354 64.220267
-20.126482 -29.035855 64.272146
-21.943514 -28.614978 64.327020
-23.949009 -28.770558 64.368010
-25.658906 -28.021980 64.430778
-27.423790 -27.441593 64.489495
-29.292971 -27.180225 64.540528
-30.962205 -26.307269 64.606292
-32.718442 -25.700432 64.665646
-34.483326 -25.120045 64.724363
-36.306168 -24.716936 64.778810
-38.013094 -23.959271 64.841797
-38.857808 -22.305048 64.913354
-40.729960 -22.052768 64.964168
-41.705178 -20.797725 65.026110
-43.470062 -20.217338 65.084827
-44.997174 -18.909665 65.161062
-46.524287 -17.601993 65.237297
-47.751310 -16.141923 65.311475
-48.896113 -14.640098 65.385089
-50.423226 -13.332426 65.461324
-51.108989 -11.597482 65.531791
-52.112653 -10.023981 65.604437
-52.382385 -8.077760 65.672052
-53.119682 -6.368988 65.742873
-53.655781 -4.558038 65.812314
-53.809950 -2.553130 65.879137
-53.964119 -0.548221 65.945960
-54.118288 1.456688 66.012782
-54.272458 3.461596 66.079605
-54.054302 5.345078 66.134073
-53.472503 7.109965 66.176474
-52.677890 8.805446 66.211812
-51.803522 10.474917 66.244505
-50.999822 12.167435 66.279542
-50.054785 13.813858 66.309889
-49.074921 15.392992 66.337315
-47.453716 16.305727 66.329023
-46.871917 18.070613 66.371424
-45.562833 19.598310 66.389691
-43.907610 20.444019 66.378505
-43.152357 21.867153 66.406147
-41.324449 22.372627 66.380268
-40.015365 23.900323 66.398534
-38.360141 24.746032 66.387348
-36.704918 25.591741 66.376163
-35.082943 26.502958 66.367806
-33.394472 27.283159 66.353791
-31.739249 28.128868 66.342605
-30.045490 28.898651 66.328141
-28.082663 29.138298 66.290782
-26.524016 30.174288 66.287813
-24.518522 30.329868 66.246823
-22.770855 30.993438 66.227772
-20.997048 31.605505 66.206496
-18.991554 31.761085 66.165506
-16.986060 31.916666 66.124516
-14.980566 32.072246 66.083527
-12.975072 32.227826 66.042537
-10.969578 32.383407 66.001547
-8.964084 32.538987 65.960557
-6.958590 32.694567 65.919567
-5.289355 31.821611 65.853803
-3.283861 31.977191 65.812814
-1.527492 31.370758 65.753469
0.390867 31.259815 65.706060
2.240047 30.937270 65.653553
4.065595 30.542438 65.599306
5.769816 29.776496 65.536119
7.534700 29.196109 65.477402
9.299584 28.615722 65.418685
11.064468 28.035335 65.359969
12.748026 27.206192 65.295260
14.594236 26.874561 65.242535
16.121349 25.566888 65.166300
17.755729 24.587322 65.097968
19.424963 23.714365 65.032204
20.495831 22.751892 64.977309
22.022943 21.444220 64.901074
23.550056 20.136547 64.824839
24.394770 18.482325 64.753282
25.921882 17.174653 64.677047
27.015532 15.646850 64.603783
28.134758 14.132037 64.530345
29.138422 12.558536 64.457698
29.408154 10.612315 64.390083
30.527381 9.097501 64.316644
30.681550 7.092593 64.249822
30.835719 5.087684 64.182999
30.989888 3.082775 64.116176
31.144057 1.077867 64.049353
30.934584 -0.808446 63.994597
30.423858 -2.596512 63.949838
29.770987 -4.338220 63.909796
29.189188 -6.103107 63.867395
27.880104 -7.630803 63.849129
27.298305 -9.395690 63.806728
27.080554 -11.279304 63.752247
25.788569 -12.243476 63.751379
25.168620 -13.933196 63.712224
23.551547 -14.854072 63.720164
22.242463 -16.381768 63.701897
20.620681 -17.293365 63.710237
19.278155 -18.755173 63.694816
17.969071 -20.282870 63.676550
16.313848 -21.128579 63.687735
14.556761 -21.773590 63.707588
13.003401 -22.819996 63.710107
11.524802 -24.013702 63.706264
9.692955 -24.511414 63.732478
8.003328 -25.289339 63.746591
6.382508 -26.202832 63.754850
4.481854 -26.564975 63.786919
2.725923 -27.212263 63.806674
0.960380 -27.840612 63.827246
-1.045114 -27.996192 63.868236
-3.050608 -28.151773 63.909226
-4.587248 -29.231123 63.910322
-6.572082 -29.427409 63.949554
-8.577576 -29.582990 63.990543
-10.583070 -29.738570 64.031533
-12.588564 -29.894150 64.072523
7.283032 -41.735137 0.439513
5.824081 -40.576255 0.647628
3.849167 -40.368401 0.885717
1.874252 -40.160547 1.123807
0.415301 -39.001664 1.331922
-1.496936 -38.678283 1.566370
-3.018564 -37.634928 1.778126
-4.993478 -37.427074 2.016216
-6.452429 -36.268191 2.224330
-8.302005 -35.829312 2.455138
-9.547220 -34.276471 2.650835
-11.345245 -33.742572 2.878649
-12.804196 -32.583689 3.086763
-14.377391 -31.635384 3.301515
-15.722097 -30.265924 3.502992
-17.597505 -29.874659 3.735301
-18.842721 -28.321817 3.930998
-20.098950 -26.789276 4.127335
-21.697994 -25.888613 4.343588
-23.016852 -24.471510 4.543564
-23.823718 -23.237737 4.677665
-25.068934 -21.684896 4.873362
-26.314149 -20.132054 5.069060
-27.559365 -18.579213 5.264757
-28.804581 -17.026371 5.460454
-29.891675 -15.989975 5.621066
-30.200757 -14.157823 5.716018
-31.445973 -12.604981 5.911715
-31.313410 -10.641058 5.959138
-32.477307 -9.063954 6.146084
-32.949058 -7.280337 6.258541
-32.779094 -5.305254 6.301939
-33.552969 -3.611780 6.446911
-33.339055 -1.623585 6.485579
-34.156879 0.056776 6.635280
-33.942966 2.044972 6.673948
-33.729053 4.033167 6.712616
-32.693471 5.572093 6.640596
-32.358093 7.493874 6.662901
-32.144180 9.482070 6.701568
-31.930266 11.470266 6.740236
-31.170805 13.160168 6.705412
-29.623070 14.419060 6.564400
-28.742231 16.042595 6.513225
-28.245213 17.875996 6.513755
-26.980554 19.289667 6.410876
-25.931120 20.821019 6.336990
-24.551980 22.172095 6.218689
-23.004245 23.430986 6.077676
-22.459980 25.238553 6.071841
-20.921180 25.574554 5.902291
-19.267663 26.470237 5.737239
-17.719928 27.729128 5.596226
-16.783083 29.160362 5.532324
-15.077770 29.878199 5.355501
-13.316450 30.403735 5.165951
-11.764505 31.648170 5.023982
-10.007395 32.188162 4.835388
-8.418786 33.306708 4.685087
-6.484756 33.239232 4.456288
-4.771012 33.928124 4.277549
-3.175701 35.023659 4.125725
-1.425294 35.586662 3.938654
0.346938 36.074730 3.746624
2.222480 36.208077 3.531117
3.895339 37.037347 3.361669
5.844483 36.917979 3.129436
7.543113 37.658762 2.954132
9.518027 37.450908 2.716042
11.190887 38.280177 2.546594
13.165801 38.072324 2.308504
15.140715 37.864470 2.070415
17.115629 37.656616 1.832325
18.814476 38.396656 1.656971
20.763403 38.278032 1.424787
22.738317 38.070178 1.186697
24.713232 37.862324 0.948607
26.688146 37.654470 0.710518
28.663060 37.446617 0.472428
30.637974 37.238763 0.234338
32.096925 36.079880 0.026223
34.071840 35.872026 -0.211866
36.046754 35.664173 -0.449956
37.852180 35.143916 -0.678200
39.480619 34.297436 -0.896161
41.455533 34.089582 -1.134250
43.047192 33.175308 -1.350075
44.889398 32.722846 -1.580455
46.348349 31.563963 -1.788569
47.877362 30.534220 -2.000754
49.782214 30.197227 -2.234773
51.241165 29.038344 -2.442888
52.707533 27.893133 -2.651433
54.317590 27.012771 -2.868326
55.927647 26.132408 -3.085219
57.537704 25.252046 -3.302112
58.782920 23.699204 -3.497809
60.392977 22.818842 -3.714702
61.969785 21.877194 -3.929664
62.518701 20.167966 -4.048779
64.128758 19.287603 -4.265673
65.373974 17.734762 -4.461370
66.619190 16.181920 -4.657067
67.864405 14.629079 -4.852764
69.165244 13.656456 -5.036379
69.983068 11.976095 -5.186081
70.505797 10.207689 -5.304025
71.681368 9.197690 -5.474160
71.901973 7.339140 -5.559590
73.147189 5.786299 -5.755287
74.197492 4.738925 -5.911940
73.983579 2.750729 -5.950608
74.329484 0.929564 -6.049522
74.587490 -0.917827 -6.138977
74.373577 -2.906023 -6.177645
75.146937 -4.599650 -6.322561
74.977488 -6.574579 -6.366014
74.763574 -8.562775 -6.404682
74.549661 -10.550970 -6.443350
74.335748 -12.539166 -6.482017
73.495437 -14.184861 -6.436302
72.964788 -15.999873 -6.432302
71.807741 -17.472385 -6.343919
71.593828 -19.460580 -6.382587
70.638978 -21.043648 -6.321442
70.222868 -22.921288 -6.332872
68.877300 -24.290720 -6.219093
67.329566 -25.549612 -6.078081
66.448727 -27.173148 -6.026906
65.559307 -28.767220 -5.973781
63.806568 -29.322219 -5.786181
62.792015 -30.486636 -5.704620
61.305712 -31.548551 -5.564491
60.069986 -32.361469 -5.445744
58.522251 -33.620361 -5.304732
56.974517 -34.879252 -5.163719
55.213197 -35.404788 -4.974169
53.635339 -36.560252 -4.826310
51.904142 -37.189215 -4.643606
50.289621 -38.218790 -4.487415
48.595088 -38.973642 -4.313042
46.833768 -39.499177 -4.123492
45.072448 -40.024712 -3.933942
43.311128 -40.550248 -3.744392
41.623269 -41.328013 -3.571535
39.788489 -41.601318 -3.365291
37.975495 -41.949428 -3.163998
36.052264 -41.919032 -2.937653
34.327721 -42.570844 -2.756461
32.529624 -42.970102 -2.558553
30.679948 -43.192259 -2.348923
28.793400 -43.287816 -2.130915
27.032174 -43.813675 -1.941386
25.057260 -43.605821 -1.703296
23.082346 -43.397967 -1.465206
21.107431 -43.190113 -1.227116
19.132517 -42.982260 -0.989026
17.157603 -42.774406 -0.750936
15.182689 -42.566552 -0.512846
13.207774 -42.358698 -0.274757
11.232860 -42.150845 -0.036667
9.257946 -41.942991 0.201423
23.821963 -40.075311 -0.445035
22.153348 -39.237296 -0.222638
20.169231 -39.434663 0.003541
18.185113 -39.632031 0.229719
16.200996 -39.829398 0.455897
14.216879 -40.026765 0.682076
12.548264 -39.188750 0.904473
10.564147 -39.386118 1.130652
8.853353 -38.686522 1.353555
6.911415 -38.745470 1.579227
5.111201 -38.339325 1.803202
3.258683 -38.104823 2.027803
1.590069 -37.266808 2.250201
-0.390481 -37.452466 2.476336
-1.926915 -36.180679 2.697150
-3.731277 -35.788145 2.921174
-5.445973 -35.101356 3.144124
-7.205502 -34.561695 3.367611
-8.965031 -34.022033 3.591098
-10.721238 -33.471468 3.814545
-12.260995 -32.210585 4.035398
-13.797429 -30.938797 4.256212
-15.556958 -30.399136 4.479699
-17.093393 -29.127349 4.700512
-18.629828 -27.855561 4.921326
-20.166262 -26.583774 5.142139
-21.702697 -25.311987 5.362952
-23.239131 -24.040200 5.583766
-24.103962 -22.407541 5.737447
-25.863491 -21.867880 5.960934
-26.947267 -20.352867 6.136500
-28.085787 -18.867269 6.317539
-28.457983 -16.969905 6.421977
-29.994418 -15.698118 6.642791
-30.551557 -13.900129 6.765715
-31.690078 -12.414531 6.946754
-31.878807 -10.418585 7.032853
-32.110533 -8.445742 7.123250
-33.206056 -6.937042 7.299991
-33.394786 -4.941096 7.386090
-33.583515 -2.945149 7.472189
-33.772244 -0.949203 7.558288
-33.960973 1.046743 7.644387
-33.121998 2.729049 7.600002
-33.310727 4.724995 7.686101
-32.562620 6.435033 7.653254
-32.019786 8.207717 7.646469
-31.476951 9.980400 7.639684
-30.934117 11.753084 7.632899
-29.664586 13.303991 7.533848
-28.395055 14.854898 7.434797
-27.852220 16.627582 7.428012
-26.598923 18.183443 7.331022
-26.039855 19.951172 7.322176
-24.414223 20.827568 7.159773
-23.795181 22.455904 7.139431
-22.245756 23.476648 6.990586
-20.976225 25.027554 6.891535
-19.706694 26.578461 6.792484
-18.081062 27.454857 6.630081
-16.811531 29.005764 6.531030
-15.185899 29.882159 6.368628
-13.431576 30.514795 6.183331
-11.934635 31.634951 6.043823
-10.309003 32.511346 5.881420
-8.990031 33.968605 5.773574
-7.005914 34.165973 5.547395
-5.432107 35.140533 5.394213
-3.541281 35.514610 5.184631
-2.060766 36.665880 5.048045
-0.555211 37.769720 4.907005
1.403866 38.014518 4.685281
3.387984 38.211885 4.459103
4.868499 39.363155 4.322517
6.852616 39.560523 4.096339
8.836733 39.757890 3.870161
10.317248 40.909160 3.733575
12.301366 41.106528 3.507396
14.285483 41.303895 3.281218
16.269601 41.501262 3.055040
18.253718 41.698630 2.828861
20.237836 41.895997 2.602683
22.221953 42.093364 2.376505
23.940964 41.420735 2.153503
25.874685 41.452717 1.927929
27.858802 41.650084 1.701751
29.842920 41.847451 1.475572
31.511534 41.009436 1.253175
33.407892 40.918805 1.028048
35.164266 40.368789 0.804599
37.148383 40.566156 0.578421
38.909574 40.031947 0.354914
40.669103 39.492285 0.131427
42.469730 39.087494 -0.092553
44.188161 38.412962 -0.315547
45.947690 37.873301 -0.539034
47.707219 37.333639 -0.762521
49.459690 36.770817 -0.985923
51.003182 35.522191 -1.206822
52.762711 34.982529 -1.430309
54.465533 34.256772 -1.653116
56.058675 33.171081 -1.874609
57.802762 32.580742 -2.097911
59.354638 31.359632 -2.318909
60.891073 30.087845 -2.539723
62.174951 29.292603 -2.715665
63.582521 28.135686 -2.917695
64.603358 27.014992 -3.073245
66.139792 25.743205 -3.294059
67.004623 24.110547 -3.447740
68.541058 22.838760 -3.668553
69.900772 21.472016 -3.871702
70.270719 19.573443 -3.975916
71.807154 18.301656 -4.196729
72.366542 16.504875 -4.319879
73.505062 15.019277 -4.500917
73.693792 13.023331 -4.587016
74.594873 11.410151 -4.744321
75.021041 9.541788 -4.854154
75.209770 7.545842 -4.940253
75.398500 5.549896 -5.026352
75.587229 3.553950 -5.112451
75.775958 1.558003 -5.198550
74.936982 -0.124303 -5.154165
75.125712 -2.120249 -5.240265
74.380038 -3.831029 -5.207726
73.837204 -5.603713 -5.200941
73.636490 -7.480807 -5.237594
72.797515 -9.163113 -5.193209
72.208701 -10.921764 -5.180586
72.147268 -12.841365 -5.234923
71.611445 -14.237561 -5.216891
69.867996 -14.890794 -5.033528
68.598465 -16.441701 -4.934477
67.328934 -17.992607 -4.835426
66.059403 -19.543514 -4.736375
64.947821 -21.142625 -4.657379
63.890936 -22.192594 -4.567188
62.330637 -23.192740 -4.416408
61.293004 -24.710606 -4.343473
59.948802 -25.437666 -4.209262
58.471206 -26.594464 -4.073195
56.987772 -27.740206 -3.936090
55.507257 -28.891476 -3.799505
53.594310 -29.223651 -3.585988
52.324779 -30.774558 -3.486937
50.699147 -31.650954 -3.324534
49.081595 -32.542654 -3.163569
47.447883 -33.403745 -2.999729
45.616962 -33.891291 -2.800805
44.136447 -35.042562 -2.664219
42.152330 -35.239929 -2.438041
40.589255 -36.234817 -2.286767
38.687697 -36.588566 -2.075277
36.703580 -36.785934 -1.849098
35.000157 -37.514981 -1.672857
33.238948 -38.134571 -1.486334
31.254830 -38.331939 -1.260156
29.270713 -38.529306 -1.033978
27.286595 -38.726673 -0.807799
25.803695 -39.873426 -0.670789
-20.399895 -36.983681 -69.059893
-22.086602 -36.155464 -68.995166
-24.079846 -36.364917 -68.901238
-26.073090 -36.574369 -68.807311
-28.066333 -36.783821 -68.713383
-29.925650 -36.539911 -68.632213
-31.746284 -36.165057 -68.554728
-33.739528 -36.374509 -68.460800
-35.684454 -36.420398 -68.371476
-37.419479 -35.755744 -68.302145
-39.412723 -35.965197 -68.208218
-41.226504 -35.567142 -68.131385
-43.001603 -35.038143 -68.058238
-44.779382 -34.518216 -67.984835
-46.551801 -33.980144 -67.911942
-48.459333 -33.899452 -67.826179
-50.318752 -33.655887 -67.745000
-51.877097 -32.393146 -67.692499
-53.519456 -31.414803 -67.631996
-55.427295 -31.335147 -67.546204
-57.199407 -30.796039 -67.473341
-58.760739 -29.543406 -67.420556
-60.319084 -28.280664 -67.368056
-62.094183 -27.751664 -67.294908
-63.869282 -27.222665 -67.221761
-65.427627 -25.959923 -67.169260
-67.013117 -24.789072 -67.114174
-68.089348 -23.803105 -67.079587
-69.804592 -23.071488 -67.012141
-70.751070 -21.646287 -66.989915
-72.309415 -20.383545 -66.937414
-73.976239 -19.488020 -66.874581
-74.630648 -18.041674 -66.865977
-75.791196 -16.562732 -66.834781
-76.744382 -14.971089 -66.814691
-77.631005 -13.343271 -66.798166
-79.189350 -12.080529 -66.745666
-79.483430 -10.130667 -66.760875
-80.290873 -8.459814 -66.748591
-80.854567 -6.656486 -66.749361
-81.065157 -4.661247 -66.769041
-81.275746 -2.666009 -66.788722
-81.486335 -0.670770 -66.808403
-81.696924 1.324469 -66.828084
-81.907513 3.319708 -66.847765
-82.118103 5.314946 -66.867446
-81.943267 7.195880 -66.903017
-81.415945 8.972277 -66.953121
-80.676053 10.685633 -67.011990
-80.361301 12.525073 -67.053330
-79.833980 14.301470 -67.103434
-79.234002 16.056320 -67.156533
-78.046131 17.636819 -67.233871
-76.785604 19.195771 -67.314204
-75.525077 20.754723 -67.394538
-74.891815 22.499702 -67.449010
-74.065495 24.187426 -67.511441
-72.844720 25.193879 -67.581854
-71.219006 26.080239 -67.668963
-70.426662 27.778039 -67.729994
-69.065971 28.742997 -67.806176
-67.805444 30.301949 -67.886509
-66.179731 31.188309 -67.973618
-64.916516 32.742311 -68.054001
-63.293490 33.633621 -68.141060
-61.667777 34.519981 -68.228168
-60.042063 35.406342 -68.315277
-58.492896 36.433684 -68.400965
-57.016104 37.594324 -68.485311
-55.530109 38.738014 -68.569828
-53.546069 38.964416 -68.663584
-52.069277 40.125057 -68.747930
-50.076033 40.334509 -68.841858
-48.296882 40.938273 -68.931813
-46.671169 41.824633 -69.018922
-45.129205 42.865241 -69.104476
-43.135962 43.074694 -69.198404
-41.428842 43.811122 -69.287023
-39.665926 44.444786 -69.376677
-37.672682 44.654238 -69.470605
-35.679439 44.863690 -69.564532
-33.686195 45.073142 -69.658460
-31.692951 45.282594 -69.752387
-29.848629 45.766326 -69.843552
-28.222916 46.652687 -69.930660
-26.231063 46.857430 -70.024455
-24.542964 46.033923 -70.089316
-22.549721 46.243375 -70.183243
-20.556477 46.452827 -70.277171
-18.563233 46.662279 -70.371098
-16.876526 45.834063 -70.435826
-14.883282 46.043515 -70.529753
-12.938356 46.089404 -70.619078
-11.203331 45.424751 -70.688409
-9.210087 45.634203 -70.782336
-7.523380 44.805986 -70.847064
-5.530136 45.015438 -70.940991
-3.843428 44.187222 -71.005719
-2.071010 43.649150 -71.078611
-0.163477 43.568458 -71.164374
1.523231 42.740241 -71.229102
3.471040 42.795894 -71.318702
5.029386 41.533152 -71.371202
6.804484 41.004153 -71.444350
8.362830 39.741411 -71.496850
10.263305 39.636828 -71.581941
11.913027 38.683412 -71.643145
13.636720 37.980395 -71.711396
15.007983 36.762054 -71.756021
16.133094 35.263852 -71.785318
17.908193 34.734853 -71.858466
19.316621 34.006570 -71.911976
20.569914 32.578035 -71.948139
22.128260 31.315293 -72.000639
23.686605 30.052551 -72.053139
24.908772 28.607099 -72.087635
26.131573 27.161991 -72.122165
27.229869 25.649215 -72.150026
28.390417 24.170273 -72.181222
29.463163 22.643611 -72.207715
29.761554 20.696092 -72.192737
30.922103 19.217150 -72.223933
32.082651 17.738208 -72.255128
32.293240 15.742970 -72.235447
32.503829 13.747731 -72.215766
32.714418 11.752492 -72.196085
32.925008 9.757253 -72.176405
33.135597 7.762015 -72.156724
33.346186 5.766776 -72.137043
32.746554 4.011823 -72.083957
32.730456 2.083813 -72.054931
32.941045 0.088574 -72.035250
32.114725 -1.599150 -71.972818
31.993287 -3.325344 -71.941951
30.477964 -4.415018 -71.856891
29.950642 -6.191416 -71.806787
29.784872 -8.075038 -71.771589
28.895999 -9.744211 -71.706579
27.635472 -11.303163 -71.626245
26.374945 -12.862115 -71.545912
24.950918 -14.119937 -71.462545
23.517973 -15.316107 -71.379677
22.961382 -17.083824 -71.328366
21.335669 -17.970185 -71.241257
20.075142 -19.529137 -71.160924
19.247290 -20.752025 -71.105244
17.556920 -21.519303 -71.016936
16.293706 -23.073305 -70.936553
14.670680 -23.964615 -70.849494
13.044966 -24.850975 -70.762385
11.346878 -25.604038 -70.673934
9.793539 -26.623696 -70.588168
8.167826 -27.510056 -70.501059
6.542112 -28.396417 -70.413951
4.923258 -29.295410 -70.326969
3.290685 -30.169137 -70.239734
1.453223 -30.665503 -70.148696
-0.023569 -31.826143 -70.064351
-2.016813 -32.035595 -69.970423
-3.577355 -33.041987 -69.884524
-5.486849 -33.405687 -69.792150
-7.480092 -33.615140 -69.698222
-9.184868 -34.355885 -69.609647
-10.950128 -34.985232 -69.519949
-12.943372 -35.194684 -69.426022
-14.936615 -35.404136 -69.332094
-16.783281 -35.883552 -69.240886
-18.406651 -36.774229 -69.153821
-37.967742 -31.299809 -67.852488
-39.443282 -30.142347 -67.802217
-41.432286 -29.937004 -67.714570
-42.907826 -28.779542 -67.664299
-44.896830 -28.574199 -67.576652
-46.820825 -28.248309 -67.493737
-48.361374 -27.211393 -67.438734
-50.350378 -27.006050 -67.351087
-51.825918 -25.848588 -67.300816
-53.685447 -25.403159 -67.222593
-55.290462 -24.485782 -67.162898
-56.766002 -23.328320 -67.112627
-58.561609 -22.764359 -67.039057
-59.823922 -21.211509 -67.004308
-61.449309 -20.331909 -66.943129
-63.074696 -19.452309 -66.881950
-64.657167 -18.493128 -66.823896
-65.962397 -17.019859 -66.786022
-67.224710 -15.467009 -66.751273
-68.850097 -14.587409 -66.690094
-70.112411 -13.034559 -66.655344
-71.521403 -11.753698 -66.609917
-72.267591 -10.383339 -66.596015
-73.529904 -8.830489 -66.561266
-75.365893 -8.341410 -66.484757
-75.622161 -6.725293 -66.496792
-75.845430 -4.862128 -66.513957
-77.107743 -3.309278 -66.479207
-78.118512 -1.681303 -66.457026
-78.899849 0.015192 -66.446307
-79.429642 1.786813 -66.448157
-79.959435 3.558433 -66.450007
-81.506635 4.461384 -66.392735
-81.302811 6.452102 -66.431239
-81.098988 8.442820 -66.469742
-80.895164 10.433538 -66.508246
-80.691341 12.424256 -66.546750
-80.487517 14.414974 -66.585254
-80.283694 16.405692 -66.623758
-80.079870 18.396411 -66.662262
-79.876047 20.387129 -66.700766
-79.591346 22.334111 -66.742314
-78.516823 23.853987 -66.813596
-77.835953 25.586736 -66.870058
-77.157599 27.320845 -66.926426
-76.080560 28.839360 -66.997802
-74.846797 30.273125 -67.075078
-73.652300 31.728123 -67.150876
-72.101737 32.990574 -67.240079
-70.551173 34.253024 -67.329281
-69.673477 35.879337 -67.393153
-68.122914 37.141787 -67.482355
-66.572350 38.404238 -67.571558
-64.802731 38.933340 -67.659983
-63.760092 40.470458 -67.730064
-62.155414 41.088754 -67.812280
-60.604851 42.351205 -67.901483
-58.941098 43.234725 -67.990283
-57.261887 44.066493 -68.079029
-55.515048 44.671860 -68.167536
-53.745428 45.200962 -68.255961
-51.975809 45.730064 -68.344386
-50.235249 46.356455 -68.432915
-48.436569 46.788269 -68.521237
-46.876827 48.019991 -68.610407
-44.897329 47.846473 -68.698088
-43.208612 48.646416 -68.786800
-41.219608 48.441073 -68.874447
-39.540396 49.272841 -68.963193
-37.599793 49.229533 -69.051012
-35.872181 49.899266 -69.139586
-33.883177 49.693923 -69.227234
-31.894173 49.488579 -69.314881
-30.214962 50.320348 -69.403627
-28.225958 50.115004 -69.491274
-26.236954 49.909661 -69.578921
-24.247950 49.704318 -69.666568
-22.258946 49.498975 -69.754216
-20.269941 49.293631 -69.841863
-18.280937 49.088288 -69.929510
-16.291933 48.882945 -70.017157
-14.302929 48.677602 -70.104805
-12.313925 48.472259 -70.192452
-10.324921 48.266915 -70.280099
-8.486579 47.782199 -70.356779
-6.860377 46.904110 -70.418017
-4.871373 46.698767 -70.505664
-2.884270 46.489899 -70.593173
-1.406829 45.335961 -70.643583
0.366505 44.730699 -70.715531
2.057715 43.973156 -70.781501
3.617279 42.971499 -70.837888
5.522259 42.610350 -70.919419
7.231127 41.885549 -70.986674
8.856514 41.005949 -71.047853
10.118828 39.453099 -71.082602
11.937884 38.932620 -71.157879
13.413424 37.775158 -71.208150
14.994989 36.814299 -71.266138
16.364504 35.460234 -71.308692
17.882689 34.381849 -71.362067
19.508077 33.502249 -71.423245
20.791124 31.987847 -71.459504
22.395777 31.069799 -71.519174
23.658090 29.516949 -71.553923
24.920404 27.964099 -71.588673
26.248214 26.995627 -71.634984
27.075583 25.312879 -71.648002
28.337897 23.760029 -71.682751
29.600210 22.207179 -71.717501
30.130003 20.435559 -71.715651
31.392316 18.882709 -71.750401
31.922109 17.111089 -71.748551
32.451902 15.339469 -71.746701
32.905151 13.544988 -71.741027
33.511487 11.796228 -71.743002
33.533444 9.872940 -71.715779
34.365561 8.191610 -71.729034
34.161738 6.200892 -71.690530
33.957914 4.210174 -71.652027
33.754091 2.219456 -71.613523
33.550267 0.228738 -71.575019
33.346444 -1.761980 -71.536515
32.947807 -3.647350 -71.490677
31.987220 -5.228838 -71.423685
31.783396 -7.219556 -71.385181
30.627996 -8.695696 -71.310855
29.472595 -10.171836 -71.236529
29.232191 -12.142773 -71.196648
27.681627 -13.405224 -71.107445
26.803931 -15.031536 -71.043573
25.253368 -16.293986 -70.954371
24.375671 -17.920299 -70.890499
22.608072 -18.456165 -70.802066
21.444445 -19.922185 -70.727514
20.177792 -21.338164 -70.648999
18.462361 -22.048680 -70.560382
17.086319 -23.253395 -70.479982
15.760855 -24.022680 -70.408277
14.006858 -24.604083 -70.319796
12.440672 -25.814233 -70.230649
10.671053 -26.343335 -70.142224
8.969224 -27.099387 -70.053558
7.350870 -28.134888 -69.964596
5.610802 -28.762924 -69.876066
3.811630 -29.193092 -69.787745
2.252379 -30.426460 -69.698574
0.491447 -30.984645 -69.610118
-1.415836 -31.052885 -69.522181
-3.266849 -31.309501 -69.434044
-5.084051 -31.679310 -69.345787
-7.025145 -31.634357 -69.257970
-8.752266 -32.305735 -69.169394
-10.431478 -33.137503 -69.080648
-12.420482 -32.932160 -68.993001
-14.103625 -33.750766 -68.904269
-16.088697 -33.558585 -68.816608
-18.077701 -33.353242 -68.728961
-20.066705 -33.147898 -68.641313
-22.055709 -32.942555 -68.553666
-24.044713 -32.737212 -68.466019
-26.033717 -32.531869 -68.378372
-28.022721 -32.326526 -68.290724
-30.011725 -32.121182 -68.203077
-32.000729 -31.915839 -68.115430
-33.989733 -31.710496 -68.027783
-35.978738 -31.505153 -67.940136
16.766367 -41.975285 24.732465
15.094389 -41.131021 24.920300
13.238986 -40.879148 25.102799
11.430294 -40.476414 25.286657
9.438177 -40.666073 25.465180
7.721540 -39.966037 25.651715
5.957850 -39.417968 25.836882
4.102104 -39.167202 26.019372
2.204095 -39.052925 26.200631
0.438008 -38.512595 26.385729
-1.323287 -37.956789 26.570965
-3.086977 -37.408720 26.756132
-4.624295 -36.129558 26.947885
-6.570043 -36.169460 27.127756
-8.242021 -35.325195 27.315591
-9.915368 -34.485352 27.503386
-11.452686 -33.206190 27.695138
-12.990004 -31.927027 27.886890
-14.609793 -30.914213 28.076243
-16.291013 -30.099796 28.263809
-17.828331 -28.820634 28.455561
-18.691039 -27.183343 28.597988
-20.228357 -25.904181 28.789740
-21.765675 -24.625018 28.981492
-22.628384 -22.987728 29.123920
-23.491092 -21.350438 29.266348
-25.028410 -20.071275 29.458100
-25.406719 -18.176833 29.565111
-26.079218 -16.438567 29.693631
-26.724718 -14.685968 29.820178
-26.906696 -12.687300 29.912834
-27.088675 -10.688633 30.005490
-27.270654 -8.689966 30.098146
-27.452632 -6.691299 30.190802
-27.634611 -4.692631 30.283458
-27.542686 -2.778515 30.347379
-26.969488 -1.012964 30.360809
-26.122388 0.668036 30.345504
-26.304366 2.666703 30.438160
-24.979047 3.633708 30.351236
-23.699086 5.181088 30.290519
-23.146793 6.953092 30.306142
-21.866832 8.500472 30.245426
-21.314540 10.272477 30.261049
-20.034578 11.819857 30.200333
-18.492588 12.867679 30.096271
-17.120186 14.238821 30.020263
-15.510946 15.158433 29.905076
-14.586939 16.775442 29.880179
-13.299030 17.753995 29.797179
-11.664599 18.625580 29.677826
-10.128504 19.684643 29.574739
-8.637683 20.830020 29.479142
-7.115775 21.916129 29.378402
-5.154745 22.165055 29.205022
-3.663923 23.310432 29.109425
-1.858010 23.855088 28.961705
-0.180985 24.645468 28.835306
1.410853 25.598257 28.722998
3.301953 25.980503 28.561186
5.034185 26.665631 28.425654
6.784892 27.315538 28.287067
8.777009 27.505197 28.108544
10.769127 27.694855 27.930022
12.635321 28.124584 27.772330
14.252065 29.029890 27.655902
16.244183 29.219549 27.477380
18.236300 29.409207 27.298858
20.228417 29.598865 27.120336
22.220535 29.788524 26.941813
24.212652 29.978182 26.763291
25.884630 29.133917 26.575456
27.876747 29.323576 26.396934
29.868865 29.513234 26.218412
31.540843 28.668969 26.030577
33.532960 28.858628 25.852055
35.474942 28.886370 25.672074
37.197055 28.204021 25.485697
38.869033 27.359757 25.297863
40.861151 27.549415 25.119340
42.529706 26.694096 24.931406
44.205106 25.860886 24.743671
45.877084 25.016621 24.555836
47.594405 24.318796 24.369320
49.358096 23.770728 24.184153
50.895414 22.491565 23.992401
52.659105 21.943497 23.807234
54.236974 20.795297 23.616661
55.960114 20.116266 23.430315
57.580930 19.106768 23.240992
58.586513 17.930907 23.102720
60.123831 16.651744 22.910968
61.661149 15.372582 22.719216
62.693666 13.825437 22.564373
63.829686 12.333239 22.401962
64.923884 10.818839 22.242608
66.101727 9.348843 22.077139
67.237748 7.856645 21.914728
67.512010 5.906968 21.815325
68.555747 4.365780 21.659661
68.737726 2.367112 21.567005
68.919704 0.368445 21.474349
69.101683 -1.630222 21.381693
69.283661 -3.628889 21.289037
69.465640 -5.627557 21.196381
69.647619 -7.626224 21.103725
68.800518 -9.307224 21.119030
68.982496 -11.305891 21.026374
68.146398 -12.990287 21.040525
67.288294 -14.667891 21.056984
66.314145 -16.309672 21.085618
65.594093 -18.029891 21.087594
64.481891 -19.629056 21.130711
63.201929 -21.176436 21.191428
62.453249 -22.574028 21.208291
61.015206 -23.820026 21.295158
60.276449 -25.534470 21.299097
59.062925 -26.910579 21.360106
57.548521 -28.010995 21.459605
55.914089 -28.882579 21.578958
54.590462 -30.346711 21.646898
52.999696 -31.301544 21.759028
51.365265 -32.173129 21.878381
49.730833 -33.044713 21.997735
48.125881 -33.972500 22.112212
46.133764 -34.162158 22.290734
44.827539 -35.659467 22.355795
43.152122 -36.452913 22.481929
41.204206 -36.726841 22.653139
39.669183 -37.787948 22.756048
37.935343 -38.470011 22.891846
36.186245 -39.122983 23.030168
34.194127 -39.312642 23.208690
32.202010 -39.502300 23.387212
30.209893 -39.691958 23.565734
28.345306 -40.124753 23.723160
26.726954 -41.026994 23.839854
24.734837 -41.216652 24.018376
22.742719 -41.406310 24.196899
20.750602 -41.595969 24.375421
18.758485 -41.785627 24.553943
15.510997 -44.298765 25.644032
14.037532 -43.141509 25.825215
12.048498 -42.935892 26.018419
10.059464 -42.730275 26.211623
8.070430 -42.524657 26.404828
6.081396 -42.319040 26.598032
4.325485 -41.683124 26.785801
2.618897 -40.956167 26.972420
1.083064 -39.914029 27.155057
-0.843602 -39.593293 27.346807
-2.523920 -38.817845 27.532813
-4.145130 -37.933298 27.717441
-5.766341 -37.048750 27.902069
-7.253033 -35.915907 28.083560
-9.008763 -35.279656 28.271325
-10.715532 -34.553033 28.457947
-11.520197 -33.291788 28.580723
-13.082482 -32.298476 28.763977
-14.143244 -31.337324 28.899261
-15.449433 -30.043918 29.070007
-16.909491 -28.861915 29.250877
-18.396364 -27.729406 29.432373
-19.787351 -26.419909 29.611632
-21.043999 -24.862451 29.787760
-22.300648 -23.304994 29.963887
-23.557297 -21.747536 30.140015
-24.082959 -19.971305 30.256285
-24.765280 -18.241959 30.385383
-25.865269 -16.637616 30.548683
-26.409095 -14.866821 30.666440
-27.231003 -13.179251 30.806969
-27.019138 -11.182290 30.862846
-27.841046 -9.494721 31.003375
-27.629182 -7.497760 31.059252
-27.557266 -5.542683 31.126589
-28.239225 -3.813230 31.255658
-28.027360 -1.816268 31.311535
-26.869091 -0.333401 31.259720
-26.657227 1.663560 31.315597
-25.503281 3.148777 31.264273
-24.616220 4.778967 31.243319
-24.128823 6.626257 31.267843
-23.511309 8.402867 31.277561
-21.955039 9.669538 31.180456
-21.067979 11.299728 31.159502
-20.096828 12.643838 31.119875
-18.409230 13.463724 30.993607
-17.240983 14.941172 30.940656
-15.750481 15.627719 30.827712
-14.823891 17.123428 30.797980
-13.091732 17.791715 30.661817
-11.535462 19.058386 30.564712
-10.626784 20.676834 30.541298
-8.666327 20.506634 30.352099
-6.981940 21.337446 30.226545
-5.297554 22.168258 30.100990
-3.561648 22.823797 29.963995
-1.789960 23.357602 29.819055
-0.018271 23.891407 29.674114
1.744639 24.455079 29.531123
3.429025 25.285891 29.405569
5.418059 25.080274 29.212364
7.102445 25.911086 29.086810
9.091479 25.705469 28.893605
10.827278 26.361372 28.756634
12.764899 26.330664 28.574847
14.753933 26.125047 28.381642
16.742967 25.919430 28.188438
18.732001 25.713813 27.995233
20.416387 26.544625 27.869679
22.405421 26.339008 27.676475
24.394455 26.133391 27.483270
26.383489 25.927774 27.290066
28.216625 25.434399 27.100497
29.845988 24.564900 26.915679
31.835022 24.359283 26.722474
33.824056 24.153666 26.529270
35.813090 23.948049 26.336065
37.416364 23.030394 26.151856
39.275590 22.585175 25.961678
40.749055 21.427919 25.780495
42.738089 21.222302 25.587291
44.265769 20.165115 25.404844
45.886980 19.280568 25.220216
47.508191 18.396020 25.035588
49.147519 17.544915 24.850537
50.750612 16.626926 24.666332
52.371823 15.742378 24.481704
53.993033 14.857831 24.297076
55.249682 13.300373 24.120949
56.870893 12.415826 23.936321
58.492104 11.531278 23.751693
59.748752 9.973820 23.575565
61.005401 8.416362 23.399438
62.262050 6.858904 23.223310
63.518699 5.301446 23.047183
64.645570 3.705148 22.881682
65.301009 1.967757 22.754785
66.289385 0.330010 22.600626
67.083320 -1.365932 22.462388
67.608982 -3.142163 22.346117
68.755107 -4.732698 22.179040
68.543243 -6.729659 22.123163
69.185967 -8.470856 21.997307
69.153286 -10.414190 21.926757
69.506304 -12.242091 21.824624
69.763330 -14.098720 21.730351
69.551465 -16.095681 21.674474
68.412485 -17.589027 21.724094
68.181331 -19.575510 21.670412
67.307574 -21.212927 21.689852
66.811198 -23.055339 21.666350
66.202663 -24.836827 21.655610
65.315603 -26.467017 21.676565
63.759333 -27.733688 21.773669
62.872273 -29.363879 21.794624
61.316002 -30.630550 21.891729
59.861580 -31.952546 21.977244
58.657254 -32.794546 22.057624
57.100984 -34.061217 22.154728
56.138397 -35.434464 22.192454
54.442235 -36.225213 22.320623
53.247381 -37.688208 22.376602
51.665219 -37.986857 22.512781
49.980833 -38.817669 22.638335
48.240109 -39.456818 22.776400
46.468421 -39.990623 22.921340
45.507654 -41.370062 22.958662
43.594253 -41.421753 23.135071
41.834234 -41.995257 23.277420
40.050876 -42.489363 23.424952
38.160814 -42.620453 23.596179
36.476428 -43.451265 23.721733
34.487394 -43.245648 23.914938
32.748704 -43.891717 24.052551
30.813974 -43.870843 24.233697
28.989909 -44.226461 24.390268
27.140553 -44.496039 24.552455
25.151520 -44.290421 24.745660
23.459425 -45.095010 24.872926
21.478099 -44.915617 25.064418
19.489065 -44.710000 25.257623
17.500031 -44.504382 25.450827
