ply
format ascii 1.0
element vertex 1115
property float x
property float y
property float z
end_header
1.226078 -18.612241 52.171614
-0.251611 -17.452036 52.285987
-2.246645 -17.242545 52.392056
-4.241679 -17.033054 52.498125
-6.236713 -16.823563 52.604195
-8.231746 -16.614073 52.710264
-9.709435 -15.453867 52.824637
-11.704469 -15.244377 52.930706
-13.245152 -14.199935 53.044068
-15.177192 -13.874681 53.151148
-16.654880 -12.714476 53.265521
-18.132569 -11.554270 53.379893
-19.749131 -10.649269 53.492037
-21.605292 -10.184574 53.600335
-23.001120 -8.873936 53.716022
-24.560669 -7.864164 53.829081
-25.887291 -6.426347 53.945878
-27.147468 -4.866423 54.063742
-28.476390 -3.432834 54.180502
-29.300341 -2.201465 54.265099
-29.980244 -0.469534 54.360411
-31.087397 1.135749 54.472328
-32.347573 2.695672 54.590192
-32.452736 4.597971 54.663167
-33.401331 6.250256 54.768922
-34.101065 7.976308 54.865005
-34.455089 9.804839 54.947652
-34.712354 11.662051 55.026539
-34.499479 13.658624 55.087154
-34.286603 15.655198 55.147769
-34.073728 17.651772 55.208384
-33.860853 19.648346 55.269000
-32.700417 21.129860 55.264430
-31.810410 22.758370 55.278464
-31.323728 24.606112 55.320244
-30.161603 26.086708 55.315558
-29.140392 27.643899 55.320566
-28.077868 28.686563 55.305200
-26.737304 29.946276 55.283825
-25.367247 30.697886 55.242889
-24.475130 32.325248 55.256777
-22.788289 33.156319 55.203015
-21.138833 34.120366 55.155839
-19.577606 35.384025 55.123698
-17.800426 35.914337 55.054755
-16.029765 36.466788 54.986923
-14.340134 37.294405 54.932899
-12.650503 38.122023 54.878876
-10.691706 38.035587 54.778982
-8.965839 38.740149 54.718784
-7.137347 39.096212 54.641096
-5.281174 39.358276 54.558691
-3.582987 40.156837 54.503210
-1.596510 39.976402 54.398599
0.398524 39.766912 54.292530
2.393558 39.557421 54.186460
4.388592 39.347930 54.080391
6.078223 40.175548 54.026368
7.854134 39.563379 53.916782
9.550945 38.805852 53.805926
11.545979 38.596361 53.699857
13.541013 38.386870 53.593787
15.089749 37.357227 53.480555
17.013735 37.017174 53.373345
19.008769 36.807684 53.267276
20.486458 35.647478 53.152903
22.325364 35.151074 53.044328
23.951358 34.263407 52.932336
25.436869 33.117577 52.818089
26.914558 31.957372 52.703716
28.463524 30.928151 52.590487
29.869936 29.636962 52.474970
31.349695 28.480562 52.360631
32.609871 26.920638 52.242767
33.870048 25.360715 52.124903
35.130224 23.800792 52.007040
36.741034 22.885221 51.894803
37.283098 21.135834 51.805682
38.597296 19.675186 51.688685
39.321226 18.436862 51.608784
39.229553 16.476216 51.543459
39.932515 14.751120 51.447250
40.756679 13.061952 51.346332
40.543804 11.065378 51.285716
40.330929 9.068804 51.225101
40.118054 7.072230 51.164486
39.905179 5.075656 51.103870
39.692303 3.079083 51.043255
39.479428 1.082509 50.982640
38.987258 -0.762250 50.941238
38.097252 -2.390760 50.927204
36.942303 -3.875257 50.931396
36.184625 -5.197441 50.921736
34.680129 -6.254229 50.958444
34.274308 -8.011963 50.915874
32.544094 -8.701766 50.976814
31.255830 -10.113797 50.990177
30.092860 -11.593934 50.994921
28.402958 -12.420629 51.048990
26.754453 -13.387905 51.096004
25.023696 -14.075864 51.157036
23.334065 -14.903481 51.211059
21.638866 -15.712189 51.266031
19.861686 -16.242501 51.334974
18.265173 -17.386333 51.373129
16.307326 -17.303126 51.472861
14.580508 -18.004460 51.533221
12.585474 -17.794969 51.639290
10.590441 -17.585478 51.745360
8.900810 -18.413096 51.799383
6.905776 -18.203605 51.905452
5.212342 -19.018308 51.960123
3.221111 -18.821732 52.065545
-0.204189 -47.323043 12.856651
-1.853785 -46.454507 13.066207
-3.837846 -46.615391 13.274934
-5.821908 -46.776275 13.483661
-7.666022 -46.506430 13.692736
-9.413229 -45.938322 13.902050
-11.105161 -45.200086 14.111501
-12.907643 -44.802105 14.320678
-14.738818 -44.492434 14.529784
-16.402058 -43.665889 14.739307
-18.038011 -42.755362 14.948897
-19.896472 -42.529672 15.157935
-21.407176 -41.233654 15.367835
-23.154383 -40.665546 15.577150
-24.665088 -39.369528 15.787050
-26.412295 -38.801420 15.996364
-28.159502 -38.233311 16.205678
-29.670207 -36.937293 16.415578
-31.180912 -35.641275 16.625479
-32.691616 -34.345257 16.835379
-34.202321 -33.049239 17.045279
-35.322545 -31.552646 17.220169
-36.434698 -30.051906 17.394336
-37.377137 -28.463991 17.553286
-38.614399 -27.633943 17.716879
-39.277751 -25.902671 17.850807
-39.878949 -24.139473 17.979162
-40.941862 -22.613442 18.148914
-41.143499 -20.645004 18.241445
-41.927325 -18.975615 18.386174
-42.408050 -17.150534 18.503728
-42.560447 -15.156804 18.591844
-42.712845 -13.163074 18.679960
-42.487595 -11.292007 18.722839
-41.994808 -9.507840 18.733671
-42.147206 -7.514110 18.821787
-41.495059 -5.781704 18.813529
-41.429169 -3.858875 18.875497
-40.351200 -2.264781 18.816232
-39.688299 -0.535867 18.806686
-38.484089 1.017223 18.732298
-37.912159 2.775685 18.733649
-36.616978 4.299227 18.648364
-35.968188 5.905652 18.635942
-34.405683 6.900407 18.502755
-33.110501 8.423949 18.417470
-31.476253 9.276791 18.271427
-30.589947 10.924680 18.234816
-29.259841 11.867849 18.124901
-27.620475 12.710568 17.977940
-26.067693 13.724556 17.846495
-24.685928 15.076829 17.745695
-23.073070 15.971982 17.603485
-21.575759 17.095695 17.481979
-20.078447 18.219408 17.360474
-18.128466 18.447706 17.157854
-16.597074 19.504005 17.030241
-14.849735 20.133144 16.863933
-13.115702 20.788602 16.700009
-11.131641 20.949486 16.491281
-9.243271 21.299655 16.299701
-7.650268 22.234082 16.161049
-5.666207 22.394966 15.952321
-3.682146 22.555850 15.743594
-1.997441 23.308886 15.588509
-0.200773 23.840447 15.413361
1.783288 24.001331 15.204634
3.767349 24.162215 14.995906
5.642266 23.987174 14.786908
7.401007 23.454562 14.577623
9.385068 23.615446 14.368895
11.120390 23.010759 14.159552
13.018725 22.907794 13.950612
15.002786 23.068678 13.741884
16.835016 22.762254 13.532781
18.636444 22.361026 13.323601
20.329430 21.626037 13.114152
22.076637 21.057929 12.904838
23.919697 20.784837 12.695761
25.571052 19.921712 12.486210
27.553355 20.077185 12.277478
29.065466 18.785496 12.067581
30.812673 18.217388 11.858267
32.323377 16.921370 11.648367
34.151739 16.603041 11.439254
35.820410 16.392925 11.251294
36.886350 14.868448 11.081271
37.718406 13.223833 10.932217
39.465613 12.655725 10.722903
40.976317 11.359707 10.513003
42.251719 10.549250 10.345990
43.622389 9.352608 10.154801
44.431421 8.131287 10.023447
45.456194 6.585664 9.857114
46.288250 4.941049 9.708061
47.120306 3.296434 9.559007
47.920276 1.635338 9.412831
48.784417 0.007204 9.260901
49.184826 -1.859132 9.150548
50.296978 -3.359872 8.976381
50.449376 -5.353602 8.888265
50.601774 -7.347332 8.800149
50.754172 -9.341062 8.712033
50.906569 -11.334792 8.623916
50.892080 -13.274316 8.555791
50.188532 -14.990026 8.570206
50.340930 -16.983756 8.482090
49.470495 -18.645260 8.516496
48.604362 -20.308162 8.550386
48.032432 -22.066623 8.549035
47.460503 -23.825085 8.547684
46.888573 -25.583546 8.546332
45.332721 -26.591460 8.678328
44.203282 -28.030768 8.748720
43.382097 -29.708269 8.777227
41.908222 -30.878342 8.894532
40.524541 -32.099538 9.000249
39.531436 -33.152168 9.069796
38.236255 -34.675711 9.155081
36.596889 -35.518430 9.302041
35.930763 -37.246295 9.311974
34.085725 -37.526446 9.501385
32.588414 -38.650159 9.622890
31.091102 -39.773872 9.744395
29.123314 -39.966945 9.950207
27.609730 -41.058469 10.074628
26.112418 -42.182182 10.196133
24.205217 -42.495102 10.391088
22.631045 -43.466779 10.526366
20.646984 -43.627663 10.735093
19.149673 -44.751376 10.856599
17.303572 -45.185155 11.040604
15.668300 -46.035972 11.186831
13.684239 -46.196856 11.395559
11.700178 -46.357740 11.604286
9.716117 -46.518624 11.813013
7.732056 -46.679508 12.021741
5.747994 -46.840392 12.230468
3.763933 -47.001275 12.439196
1.779872 -47.162159 12.647923
-6.844856 -46.842761 14.918993
-8.318034 -45.698618 15.119379
-10.298390 -45.510469 15.340247
-12.278745 -45.322319 15.561116
-13.751923 -44.178177 15.761502
-15.668063 -43.868984 15.979777
-17.205457 -42.845884 16.182756
-19.185813 -42.657735 16.403624
-21.166168 -42.469586 16.624493
-21.783303 -40.859431 16.749071
-23.532925 -40.236366 16.960621
-25.025682 -39.129129 17.161798
-26.646872 -38.263978 17.368161
-28.268062 -37.398827 17.574524
-29.530623 -35.857686 17.766404
-30.898814 -34.515652 17.962550
-32.414373 -33.451394 18.164647
-34.035563 -32.586243 18.371010
-35.298123 -31.045102 18.562890
-36.560684 -29.503961 18.754770
-37.823245 -27.962821 18.946650
-38.848632 -26.913616 19.095211
-39.250700 -25.106654 19.203609
-40.513260 -23.565513 19.395489
-41.775821 -22.024372 19.587369
-42.188357 -20.220644 19.696783
-42.844647 -18.492215 19.829845
-42.828463 -16.556048 19.897666
-43.663394 -14.882805 20.048059
-43.468569 -12.891452 20.098550
-44.254151 -11.202964 20.244155
-44.108674 -9.226856 20.299433
-43.913849 -7.235504 20.349924
-43.719024 -5.244151 20.400414
-43.524198 -3.252798 20.450905
-42.698705 -1.597750 20.421126
-41.831747 0.035187 20.386070
-41.041487 1.709024 20.360775
-40.097832 3.301062 20.315957
-39.230874 4.933999 20.280901
-38.363916 6.566936 20.245844
-37.414833 8.156080 20.200335
-36.435739 9.190118 20.131635
-34.870945 10.376812 20.005097
-33.332860 11.651869 19.884622
-32.324265 12.816213 19.817414
-30.706847 13.828807 19.678931
-28.988550 14.507653 19.517548
-27.409706 15.647866 19.387821
-25.871621 16.922924 19.267346
-24.112566 17.466925 19.096711
-22.353511 18.010927 18.926077
-20.649263 18.736253 18.767884
-18.981406 19.581973 18.617951
-17.297315 20.373987 18.464333
-15.645691 21.273413 18.318085
-13.779205 21.461990 18.123064
-11.997478 21.930983 17.947284
-10.261095 22.549992 17.781796
-8.349265 22.588554 17.576482
-6.522015 22.906939 17.390368
-4.701052 23.246125 17.205681
-2.720696 23.057975 16.984812
-0.740340 22.869826 16.763944
1.240016 22.681677 16.543076
3.220372 22.493527 16.322207
5.200727 22.305378 16.101339
7.181083 22.117229 15.880470
9.161439 21.929079 15.659602
11.141795 21.740930 15.438733
13.122151 21.552781 15.217865
15.102506 21.364631 14.996997
16.617851 20.299969 14.794908
18.556040 20.032339 14.575742
20.536396 19.844190 14.354874
22.009574 18.700047 14.154488
23.819868 18.191343 13.940488
25.441057 17.326192 13.734125
26.936285 16.223612 13.532849
28.683437 15.595890 13.321398
30.304627 14.730739 13.115035
31.862996 13.747177 12.911209
33.336174 12.603034 12.710823
34.809567 11.459296 12.510429
36.282530 10.314748 12.310052
37.693317 9.053004 12.112186
39.228885 8.026462 11.909280
40.323281 6.568313 11.738564
41.111481 4.880633 11.592705
42.374041 3.339493 11.400825
43.995231 2.474341 11.194462
44.749783 0.776268 11.051867
45.584714 -0.896975 10.901474
46.326617 -2.598956 10.760106
47.254577 -4.243461 10.600688
48.089508 -5.916704 10.450295
48.658004 -7.672253 10.325750
49.192417 -9.438332 10.204512
49.564545 -11.254543 10.099018
49.369719 -13.245896 10.048528
49.174894 -15.237248 9.998037
48.980069 -17.228601 9.947547
48.785244 -19.219954 9.897056
48.435816 -21.128865 9.866243
47.446475 -22.696541 9.916876
47.251650 -24.687894 9.866385
46.506070 -26.385556 9.885993
45.639113 -28.018493 9.921049
44.768939 -29.649716 9.956515
43.624996 -31.134950 10.026825
42.367112 -32.559425 10.111637
41.337110 -34.105419 10.167445
40.465578 -35.270751 10.219799
38.874141 -36.369301 10.352384
37.129863 -36.962191 10.519664
35.926261 -38.374603 10.599041
34.710043 -39.821297 10.678551
33.018388 -40.588287 10.833885
31.350531 -41.434007 10.983818
29.653847 -42.184357 11.140295
28.014816 -43.125447 11.283684
26.346959 -43.971167 11.433617
24.597651 -44.547417 11.602039
22.698746 -44.628737 11.804418
21.227309 -45.714217 11.924500
19.942630 -46.375244 12.039642
18.011589 -46.350247 12.249316
16.294417 -47.032814 12.410443
14.314061 -46.844665 12.631312
12.513453 -47.251195 12.811378
10.665848 -47.502236 13.002113
8.774373 -47.608142 13.202806
7.017635 -48.159806 13.372914
5.037279 -47.971657 13.593783
3.056923 -47.783508 13.814651
1.076567 -47.595358 14.035520
-0.903789 -47.407209 14.256388
-2.884144 -47.219060 14.477256
-4.864500 -47.030910 14.698125
-11.268611 -21.819540 -81.514233
-12.785177 -20.711931 -81.510231
-14.783848 -20.572929 -81.475459
-16.782520 -20.433928 -81.440688
-18.299086 -19.326319 -81.436686
-20.297757 -19.187317 -81.401914
-22.230165 -18.915184 -81.371372
-23.812995 -17.940706 -81.363140
-25.543117 -17.262157 -81.345508
-27.328233 -16.694095 -81.324367
-28.856069 -15.609129 -81.319645
-30.843470 -15.447485 -81.285593
-32.360037 -14.339875 -81.281591
-33.876603 -13.232266 -81.277588
-35.481973 -12.303074 -81.267919
-37.391841 -11.985655 -81.238815
-38.908407 -10.878046 -81.234813
-40.451400 -9.823532 -81.229124
-41.766977 -8.312109 -81.237949
-43.423453 -7.485595 -81.225018
-44.974672 -6.447609 -81.218804
-45.670012 -4.904595 -81.240089
-46.985589 -3.393173 -81.248915
-48.301165 -1.881750 -81.257740
-49.616741 -0.370327 -81.266566
-50.809499 0.611547 -81.265892
-51.863301 2.210673 -81.281637
-52.585170 3.921007 -81.306157
-53.768961 5.476582 -81.318466
-54.360840 7.230467 -81.346421
-54.949129 8.985554 -81.374472
-55.539213 10.740041 -81.402475
-55.998345 12.538400 -81.433939
-55.860179 14.536873 -81.481192
-56.583972 16.246562 -81.505660
-56.609848 18.190076 -81.548577
-56.471683 20.188549 -81.595830
-56.333517 22.187022 -81.643083
-56.195351 24.185496 -81.690336
-56.057186 26.183969 -81.737589
-54.950141 27.699961 -81.792427
-54.547333 29.566648 -81.841752
-53.704930 31.214426 -81.894518
-52.597885 32.730418 -81.949356
-52.069721 34.534680 -81.999662
-50.558749 35.849525 -82.057662
-49.276750 37.278394 -82.113870
-48.221906 38.820381 -82.168299
-47.170268 39.803372 -82.210183
-45.996005 41.242141 -82.264570
-44.572418 41.996158 -82.308389
-43.061446 43.311003 -82.366389
-41.550474 44.625848 -82.424389
-39.826406 45.305449 -82.472239
-38.285143 46.529994 -82.528797
-36.774171 47.844839 -82.586797
-35.019812 48.434140 -82.633205
-33.265453 49.023440 -82.679613
-31.554057 49.740815 -82.728067
-29.899587 50.627888 -82.779233
-28.245117 51.514961 -82.830398
-26.491403 52.106187 -82.876837
-24.737044 52.695487 -82.923245
-22.937506 53.150106 -82.967501
-20.984939 53.148544 -83.004468
-19.284364 53.898178 -83.053438
-17.285693 53.759176 -83.088209
-15.631223 54.646250 -83.139375
-13.632552 54.507248 -83.174147
-11.726369 54.643958 -83.213323
-9.979410 55.255320 -83.260084
-7.980739 55.116318 -83.294855
-5.982068 54.977317 -83.329627
-3.983396 54.838315 -83.364399
-1.984725 54.699313 -83.399170
0.013946 54.560312 -83.433942
2.012618 54.421310 -83.468713
4.011289 54.282309 -83.503485
6.009960 54.143307 -83.538257
8.008632 54.004306 -83.573028
10.004712 53.860098 -83.607634
11.523869 52.757695 -83.611802
13.522541 52.618693 -83.646574
15.315039 52.065465 -83.668187
17.037778 51.372083 -83.685347
19.036450 51.233081 -83.720119
20.625367 50.270833 -83.728739
22.281843 49.444319 -83.741670
23.938319 48.617805 -83.754602
25.584820 47.771252 -83.766897
27.251270 46.964777 -83.780465
29.100058 46.524641 -83.805671
30.616624 45.417032 -83.809673
32.220698 44.485236 -83.819260
33.536274 42.973813 -83.810434
35.166323 42.094204 -83.821679
36.177218 41.095641 -83.818534
37.615169 39.919621 -83.819519
39.131735 38.812012 -83.823521
40.752262 37.913272 -83.834158
42.067838 36.401849 -83.825332
42.749178 34.677936 -83.799742
44.131608 33.453602 -83.798595
44.904482 32.066363 -83.782258
46.220058 30.554940 -83.773433
47.366910 28.986989 -83.760147
47.400226 27.045967 -83.717427
48.715802 25.534545 -83.708601
50.030416 24.022799 -83.699750
49.895970 22.025572 -83.652595
50.780085 20.369596 -83.632365
50.641920 18.371123 -83.585112
50.503754 16.372650 -83.537859
51.391589 14.717920 -83.517726
51.253423 12.719447 -83.470473
51.115258 10.720974 -83.423220
50.837807 8.791861 -83.374877
49.870047 7.206508 -83.321130
49.731881 5.208035 -83.273877
49.045296 3.482664 -83.222330
48.219425 1.826653 -83.169693
47.379625 0.177578 -83.116948
46.567683 -1.485369 -83.064420
45.165535 -2.854406 -83.007272
44.230840 -4.456224 -82.953783
43.221886 -5.566457 -82.909866
41.650610 -6.701536 -82.854738
40.139638 -8.016381 -82.796738
38.701822 -9.367655 -82.739311
37.559409 -10.261692 -82.697693
36.048437 -11.576537 -82.639693
34.537465 -12.891382 -82.581693
32.913286 -13.868755 -82.529085
31.272134 -14.795528 -82.477285
29.761162 -16.110373 -82.419285
27.949876 -16.529975 -82.375588
26.252443 -17.288974 -82.326469
24.640936 -18.304121 -82.273257
22.743725 -18.467575 -82.233653
20.987795 -19.052193 -82.187320
19.235007 -19.646176 -82.140837
17.480648 -20.235476 -82.094430
15.680184 -20.687338 -82.050218
13.681513 -20.548336 -82.015446
11.974183 -21.277834 -81.966798
10.028371 -21.296408 -81.929509
8.373901 -22.183481 -81.878343
6.375230 -22.044479 -81.843572
4.376559 -21.905478 -81.808800
2.377887 -21.766476 -81.774028
0.717867 -22.637004 -81.723127
-1.275254 -22.514548 -81.688091
-3.273925 -22.375546 -81.653320
-5.272597 -22.236545 -81.618548
-7.271268 -22.097543 -81.583776
-9.269939 -21.958542 -81.549005
-7.531112 -22.782020 -81.438984
-9.206288 -21.923233 -81.426419
-11.207568 -22.096131 -81.384632
-13.208849 -22.269029 -81.342845
-15.066594 -21.987831 -81.313920
-16.885305 -21.583141 -81.288492
-18.834335 -21.590737 -81.251387
-20.561761 -20.897252 -81.234140
-22.563042 -21.070150 -81.192353
-24.238217 -20.211363 -81.179788
-25.913393 -19.352576 -81.167223
-27.907801 -19.503733 -81.126051
-29.589849 -18.666688 -81.112870
-31.444951 -18.377127 -81.084182
-33.213526 -17.813824 -81.063247
-34.751510 -16.521010 -81.062976
-36.520085 -15.957707 -81.042041
-38.288660 -15.394404 -81.021106
-39.826644 -14.101589 -81.020835
-41.364628 -12.808774 -81.020563
-43.133203 -12.245471 -80.999629
-44.671187 -10.952657 -80.999357
-46.209171 -9.659842 -80.999086
-47.747155 -8.367027 -80.998814
-49.285139 -7.074213 -80.998542
-50.823122 -5.781398 -80.998271
-51.682106 -4.136000 -81.018741
-53.220090 -2.843186 -81.018470
-54.079074 -1.197788 -81.038940
-54.938057 0.447610 -81.059411
-55.851523 2.064717 -81.078217
-56.656025 3.738406 -81.100352
-57.159288 5.568518 -81.131690
-57.333045 7.569732 -81.173093
-58.467053 9.072318 -81.185162
-58.640810 11.073533 -81.226565
-58.814567 13.074747 -81.267968
-58.988324 15.075961 -81.309371
-59.162081 17.077175 -81.350774
-58.479316 18.807363 -81.402356
-58.477700 20.753085 -81.445843
-57.619562 22.427780 -81.499508
-56.791533 24.112003 -81.552816
-56.228939 25.880217 -81.602970
-55.666345 27.648430 -81.653123
-54.374091 29.185760 -81.711947
-54.360766 31.127776 -81.755574
-52.896007 32.043084 -81.803775
-51.603753 33.580414 -81.862599
-50.311498 35.117744 -81.921423
-49.019244 36.655074 -81.980248
-47.726990 38.192403 -82.039072
-46.114201 39.112905 -82.090194
-44.789586 40.587961 -82.148241
-43.144436 41.446188 -82.198586
-41.852182 42.983518 -82.257410
-40.207033 43.841746 -82.307755
-38.603143 44.779373 -82.359091
-36.916734 45.558201 -82.408444
-35.624479 47.095531 -82.467268
-34.096508 48.179253 -82.520429
-32.334181 48.811986 -82.567958
-30.593016 49.485445 -82.615995
-28.591735 49.658343 -82.657782
-27.045837 50.707567 -82.710512
-25.587312 51.924930 -82.765341
-23.586032 52.097829 -82.807128
-21.584751 52.270727 -82.848915
-19.759449 52.782274 -82.894931
-18.081259 53.576919 -82.944482
-16.079978 53.749817 -82.986269
-14.078698 53.922715 -83.028056
-12.077417 54.095614 -83.069843
-10.076136 54.268512 -83.111630
-8.074856 54.441410 -83.153417
-6.073575 54.614308 -83.195205
-4.072294 54.787207 -83.236992
-2.071014 54.960105 -83.278779
-0.069733 55.133003 -83.320566
1.888813 55.170702 -83.358524
3.606723 54.447114 -83.374918
5.608004 54.620013 -83.416706
7.425129 54.210305 -83.441991
9.284460 53.934124 -83.471058
11.192870 53.813211 -83.504523
12.960916 53.248235 -83.525410
14.730020 52.686605 -83.546392
16.637372 52.562347 -83.579763
18.312548 51.703560 -83.592328
20.266336 51.726207 -83.629859
21.804320 50.433393 -83.630131
23.664180 50.158884 -83.659245
25.341470 49.306787 -83.672000
27.014531 48.441310 -83.684376
28.689706 47.582523 -83.696941
30.416604 46.887366 -83.714141
31.954588 45.594551 -83.714412
33.715233 45.006162 -83.734636
34.582146 43.385850 -83.714876
36.120130 42.093036 -83.715148
37.831168 41.347706 -83.730927
38.747689 39.884335 -83.715612
40.285673 38.591520 -83.715884
41.409493 37.693417 -83.717122
42.543501 36.190830 -83.705053
43.772215 34.737422 -83.695877
44.811518 33.185658 -83.680915
44.985275 31.184444 -83.639512
46.119283 29.681857 -83.627442
47.208150 28.155830 -83.613994
47.427049 26.178057 -83.573970
48.247117 24.512451 -83.552311
48.734814 22.674256 -83.520498
48.502892 20.801410 -83.474274
48.050433 18.998347 -83.425429
48.224190 16.997132 -83.384026
48.397947 14.995918 -83.342623
48.441496 13.035905 -83.299673
47.713566 11.320008 -83.247555
47.316307 9.499478 -83.199366
46.753713 7.731265 -83.149212
45.461459 6.193935 -83.090388
44.898865 4.425722 -83.040235
44.336271 2.657509 -82.990081
43.596631 0.945317 -82.937824
42.940578 -0.358366 -82.896274
41.213038 -1.058044 -82.847909
40.519641 -2.574544 -82.800899
39.005294 -3.684485 -82.747411
37.713040 -5.221814 -82.688587
36.420785 -6.759144 -82.629762
35.128531 -8.296474 -82.570938
33.507652 -9.201407 -82.520010
31.838232 -10.012929 -82.470249
30.503229 -11.467994 -82.412452
28.900828 -12.408487 -82.361080
27.255679 -13.266714 -82.310735
25.610529 -14.124942 -82.260390
23.995314 -15.040773 -82.209327
22.320231 -15.841397 -82.159701
20.491821 -16.346965 -82.113760
18.989610 -17.480258 -82.059981
17.031887 -17.736978 -82.017147
15.486118 -18.786450 -81.964414
13.484837 -18.959348 -81.922627
11.743544 -19.632559 -81.874593
10.098394 -20.490787 -81.824248
8.479133 -21.398834 -81.773281
6.477852 -21.571732 -81.731494
4.476572 -21.744630 -81.689707
2.475291 -21.917529 -81.647920
0.474011 -22.090427 -81.606133
-1.527270 -22.263325 -81.564346
-3.528551 -22.436223 -81.522559
-5.529831 -22.609122 -81.480771
-3.882400 -45.652764 14.255964
-5.421695 -44.599979 14.460216
-7.410193 -44.531886 14.677650
-9.398690 -44.463794 14.895085
-11.387187 -44.395701 15.112520
-12.926483 -43.342916 15.316771
-14.914980 -43.274823 15.534206
-16.845626 -43.079916 15.749943
-18.442773 -42.153946 15.955892
-20.186395 -41.549065 16.166140
-21.856780 -40.783640 16.374238
-23.509861 -39.980284 16.581829
-25.049157 -38.927500 16.786081
-26.867934 -38.487365 16.998534
-28.538319 -37.721940 17.206633
-29.891070 -36.260233 17.405409
-31.561455 -35.494807 17.613508
-32.914206 -34.033100 17.812284
-34.584591 -33.267675 18.020383
-36.254975 -32.502250 18.228482
-37.147210 -30.867268 18.383695
-38.246931 -29.310355 18.558536
-39.860136 -28.419586 18.764957
-40.556521 -26.814743 18.897913
-41.909272 -25.353036 19.096689
-42.548477 -23.622848 19.227967
-43.780525 -22.115725 19.415326
-43.826886 -20.162473 19.490524
-45.179637 -18.700766 19.689300
-45.572485 -16.877884 19.797274
-45.497067 -14.878811 19.860952
-46.383705 -13.241723 20.015636
-46.355338 -11.260353 20.083764
-46.279920 -9.261280 20.147442
-46.204502 -7.262207 20.211120
-46.129084 -5.263134 20.274798
-46.053666 -3.264061 20.338475
-45.000356 -1.712719 20.280339
-44.924938 0.286354 20.344017
-44.341107 1.736065 20.332987
-42.840392 2.803966 20.209109
-41.990028 4.448228 20.176253
-41.222093 6.130230 20.153666
-40.454158 7.812232 20.131079
-38.994750 9.177641 20.022356
-37.535341 10.543050 19.913633
-36.075933 11.908459 19.804911
-34.616524 13.273868 19.696188
-33.157116 14.639278 19.587466
-31.435834 15.295174 19.424936
-29.973954 16.653885 19.315705
-28.250200 17.303083 19.152668
-27.311148 18.906739 19.108765
-25.559185 19.094231 18.926087
-23.770414 19.567271 18.749690
-22.311005 20.932680 18.640967
-20.587252 21.581878 18.477929
-18.726717 21.860485 18.286787
-16.875400 22.164064 18.097539
-15.123563 22.737174 17.928731
-13.163548 22.746249 17.717148
-11.520409 23.613863 17.570675
-9.531912 23.545770 17.353240
-7.727943 23.977633 17.173720
-5.928758 24.422459 16.995184
-3.940261 24.354366 16.777749
-1.951763 24.286274 16.560314
0.036734 24.218181 16.342879
2.025231 24.150088 16.125445
4.013728 24.081995 15.908010
6.002225 24.013902 15.690575
7.579098 23.043490 15.485221
9.530018 22.893024 15.268889
11.518515 22.824931 15.051454
13.507013 22.756839 14.834020
15.046308 21.704054 14.629768
16.883922 21.305210 14.416762
18.574101 20.583177 14.208082
20.224691 19.774360 14.000565
21.895076 19.008935 13.792466
23.641190 18.409515 13.582145
25.235845 17.478085 13.376269
26.906230 16.712659 13.168170
28.708278 16.235854 12.956208
29.533453 14.913329 12.819472
31.203837 14.147904 12.611373
32.556589 12.686196 12.412597
33.909340 11.224489 12.213820
35.033717 10.253622 12.057371
36.330894 8.974314 11.871157
37.175767 7.694971 11.733843
38.528519 6.233264 11.535067
39.821726 5.325921 11.362647
40.755415 3.706537 11.203512
41.477313 2.007464 11.064412
42.922330 0.748013 10.862928
43.578555 -0.566542 10.744744
43.712561 -2.486817 10.661256
44.436826 -4.184999 10.521931
44.361408 -6.184072 10.458254
45.295097 -7.803457 10.299119
45.219679 -9.802530 10.235441
45.144261 -11.801603 10.171763
45.068843 -13.800676 10.108085
44.993425 -15.799749 10.044408
44.588080 -17.647764 10.021828
43.864698 -19.350164 10.038866
43.789279 -21.349237 9.975188
42.975749 -23.010364 10.003455
41.682660 -24.451922 10.091460
40.748406 -26.057775 10.134765
39.980471 -27.739777 10.157352
39.102403 -29.123387 10.202569
37.491495 -30.072219 10.342640
36.720849 -31.752980 10.365565
35.384876 -33.174905 10.458911
34.229160 -34.084180 10.551190
32.566916 -34.900031 10.701589
31.045998 -36.098788 10.822950
29.586590 -37.464197 10.931673
27.862836 -38.113395 11.094711
26.139083 -38.762593 11.257748
24.679675 -40.128002 11.366471
22.955921 -40.777201 11.529509
21.264318 -41.513506 11.685940
19.508414 -42.075597 11.855584
17.661164 -42.390195 12.043997
16.046507 -43.334977 12.184618
14.337154 -44.023192 12.344697
12.443353 -44.211666 12.542675
10.454856 -44.143573 12.760109
8.840199 -45.088356 12.900731
6.851701 -45.020263 13.118166
5.189696 -45.836761 13.268516
3.248547 -45.896952 13.476222
1.709252 -44.844168 13.680473
-0.279246 -44.776075 13.897908
-1.894301 -45.719776 14.038611
-1.264753 -45.762220 14.345369
-2.903570 -44.855046 14.555148
-4.901059 -44.969107 14.767010
-6.898549 -45.083168 14.978872
-8.896038 -45.197229 15.190733
-10.534855 -44.290054 15.400513
-12.532344 -44.404115 15.612374
-14.211522 -43.611857 15.822388
-16.168651 -43.611002 16.034015
-17.807468 -42.703827 16.243794
-19.446285 -41.796652 16.453573
-21.428519 -41.867275 16.665346
-23.082592 -41.003539 16.875214
-24.721409 -40.096364 17.084993
-26.397432 -39.295125 17.294988
-27.999043 -38.282014 17.504551
-29.625501 -37.339650 17.714258
-31.276678 -36.467665 17.924109
-32.853570 -35.384175 18.133529
-34.340795 -34.045376 18.342428
-35.828020 -32.706577 18.551326
-37.315245 -31.367778 18.760225
-38.802470 -30.028979 18.969124
-39.981285 -29.140288 19.128506
-40.657269 -27.408859 19.263805
-41.457859 -25.737737 19.410409
-42.945084 -24.398938 19.619307
-43.745674 -22.727817 19.765911
-44.394300 -20.983146 19.898728
-44.660220 -19.053251 19.996824
-45.576876 -17.438304 20.153959
-45.682640 -15.430895 20.237524
-45.788405 -13.423487 20.321090
-45.894169 -11.416078 20.404656
-45.999933 -9.408669 20.488222
-46.105697 -7.401261 20.571788
-45.563955 -5.621425 20.577171
-45.302628 -3.743034 20.616413
-44.393795 -2.092216 20.577472
-44.420715 -0.112518 20.651518
-43.083063 1.387588 20.560799
-41.745412 2.887694 20.470080
-41.125189 4.639947 20.465987
-39.787537 6.140053 20.375268
-38.449886 7.640158 20.284549
-37.737184 9.198153 20.263478
-36.164048 10.203604 20.129525
-34.826397 11.703710 20.038806
-33.160782 12.514902 19.887875
-31.823131 14.015008 19.797156
-30.157516 14.826200 19.646225
-28.535104 15.728142 19.503226
-27.154251 17.137499 19.404575
-25.488636 17.948691 19.253644
-23.934064 18.993137 19.123100
-22.157408 19.571076 18.951782
-20.402895 20.195529 18.784530
-18.826179 21.193461 18.649920
-16.871725 21.397922 18.445960
-15.166988 22.126933 18.287846
-13.340556 22.600315 18.107389
-11.343066 22.714376 17.895528
-9.809386 23.802707 17.768819
-7.811897 23.916768 17.556957
-5.814408 24.030830 17.345096
-3.816918 24.144891 17.133234
-1.819429 24.258952 16.921372
0.178060 24.373013 16.709511
2.175549 24.487074 16.497649
4.173039 24.601135 16.285787
6.120963 24.574071 16.074213
7.809345 23.808022 15.864147
9.806835 23.922083 15.652285
11.445652 23.014908 15.442506
13.443141 23.128969 15.230644
15.081958 22.221794 15.020865
17.073268 22.318261 14.809039
18.718265 21.428681 14.599224
20.554957 21.084909 14.388296
22.354571 20.635567 14.177584
23.350011 19.519234 14.029848
25.050623 18.788008 13.819710
26.689441 17.880833 13.609931
28.686930 17.994894 13.398070
29.626753 16.720207 13.250657
31.113978 15.381408 13.041758
32.854822 14.764732 12.831387
33.655412 13.093610 12.684783
35.359179 12.371365 12.474627
36.883482 11.138136 12.265513
38.370706 9.799337 12.056614
39.698124 8.383193 11.862213
39.971886 6.457093 11.763406
41.459111 5.118295 11.554507
41.957513 3.300918 11.435319
43.060291 1.776051 11.261299
44.111138 0.226051 11.091991
44.661471 -1.566192 10.968091
45.293715 -3.318791 10.836760
45.399479 -5.326200 10.753195
45.505243 -7.333608 10.669629
45.611007 -9.341017 10.586063
45.716772 -11.348426 10.502497
45.603847 -13.278974 10.445336
44.913702 -15.006653 10.457872
44.363402 -16.783481 10.453522
44.110633 -18.664880 10.413247
43.122956 -20.287987 10.461709
42.292967 -21.966516 10.491130
41.882510 -23.792494 10.469895
41.262287 -25.544747 10.473988
39.924636 -27.044852 10.564707
39.136270 -28.443907 10.599670
37.602590 -29.532238 10.726379
35.973184 -30.419491 10.870662
35.352961 -32.171744 10.874755
33.687347 -32.982936 11.025686
32.349695 -34.483042 11.116405
30.684081 -35.294235 11.267336
29.018467 -36.105427 11.418267
27.448411 -37.117349 11.551654
25.914731 -38.205681 11.678363
24.349586 -39.227918 11.810848
22.683972 -40.039110 11.961779
21.018358 -40.850303 12.112710
19.316202 -41.584737 12.270350
17.318713 -41.698798 12.482212
15.693552 -42.594967 12.625716
13.787543 -42.901190 12.820782
12.253863 -43.989522 12.947491
10.256374 -44.103583 13.159352
8.258885 -44.217644 13.371214
6.261395 -44.331705 13.583076
4.388016 -44.706469 13.772152
2.730226 -45.534098 13.921646
0.732737 -45.648159 14.133508
2.879581 -23.550275 51.220108
1.281692 -22.561381 51.334318
-0.725108 -22.574546 51.433035
-2.731908 -22.587712 51.531753
-4.329797 -21.598818 51.645963
-6.273586 -21.457572 51.747068
-7.934485 -20.623089 51.858891
-9.532374 -19.634195 51.973101
-11.539174 -19.647361 52.071818
-13.137063 -18.658466 52.186028
-14.848465 -17.947743 52.295938
-16.563440 -17.245777 52.405712
-18.278416 -16.543811 52.515486
-19.937529 -15.704949 52.627376
-21.419224 -14.431316 52.745988
-23.133306 -13.727161 52.855796
-24.560031 -12.318821 52.976491
-26.275007 -11.616855 53.086264
-27.926972 -10.760478 53.198426
-28.710981 -9.207024 53.292524
-30.136812 -7.796495 53.413253
-31.162829 -6.217303 53.520230
-32.283642 -4.678101 53.630467
-33.709474 -3.267572 53.751196
-35.135306 -1.857043 53.871924
-35.188494 0.132538 53.945441
-36.577302 1.558686 54.064896
-37.201326 3.307459 54.158046
-37.210957 5.315414 54.230064
-38.035462 6.979614 54.330110
-38.227003 8.910830 54.408385
-38.236634 10.918786 54.480403
-38.246265 12.926741 54.552422
-38.255895 14.934697 54.624440
-37.264770 16.535262 54.632480
-37.274400 18.543218 54.704499
-36.298580 20.150014 54.713517
-35.594010 21.867231 54.739877
-34.889439 23.584448 54.766237
-34.184869 25.301664 54.792597
-32.772657 26.730813 54.773717
-31.360445 28.159961 54.754838
-30.655875 29.877178 54.781198
-29.201120 31.205013 54.756606
-27.535528 32.030750 54.703704
-26.609581 33.220770 54.700338
-25.365647 34.571240 54.686973
-24.018043 35.236526 54.644071
-22.414196 36.209306 54.599459
-20.841438 37.256122 54.559023
-19.293849 38.362878 54.521966
-17.664833 39.275717 54.473975
-15.877581 39.811725 54.404737
-14.169446 40.536148 54.346122
-12.481428 41.308477 54.290209
-10.753177 41.984995 54.228894
-9.045043 42.709419 54.170279
-7.298023 43.341238 54.106443
-5.291223 43.354404 54.007726
-3.328795 43.473239 53.914966
-1.696121 44.377367 53.866484
0.310679 44.390533 53.767766
2.091531 44.941784 53.699388
3.905782 45.413496 53.626525
5.912582 45.426662 53.527807
7.919382 45.439828 53.429089
9.926182 45.452994 53.330371
11.932982 45.466159 53.231654
13.939782 45.479325 53.132936
15.537670 44.490431 53.018726
17.544470 44.503597 52.920008
19.551270 44.516762 52.821290
21.260886 43.801660 52.711313
23.155959 43.541034 52.608363
25.162759 43.554199 52.509645
26.760648 42.565305 52.395435
28.699076 42.410923 52.294127
30.365336 41.589577 52.182507
32.129028 41.006992 52.074579
33.844004 40.305026 51.964805
35.558979 39.603060 51.855031
37.165802 38.636059 51.741160
38.763691 37.647165 51.626950
40.414763 36.788599 51.514755
41.959468 35.669376 51.398530
43.557357 34.680482 51.284320
45.270546 33.974137 51.174479
46.696378 32.563608 51.053750
48.122209 31.153079 50.933021
49.548041 29.742549 50.812293
50.973873 28.332020 50.691564
51.694871 26.624156 50.595079
53.120703 25.213626 50.474350
54.546534 23.803097 50.353621
54.599722 21.813516 50.280105
55.606139 20.226056 50.173802
56.612555 18.638595 50.067500
56.725693 16.674305 49.991921
57.628601 15.043179 49.889179
57.638232 13.035224 49.817160
57.647863 11.027268 49.745142
57.657493 9.019313 49.673124
57.667124 7.011357 49.601106
57.118950 5.230474 49.564748
56.685629 3.402837 49.521047
56.417451 1.507972 49.466789
55.704134 -0.205684 49.440988
54.300668 -1.638393 49.459309
53.721883 -3.406815 49.424907
53.543825 -5.229096 49.368781
51.891034 -6.085319 49.419964
50.478822 -7.514467 49.438844
49.066610 -8.943616 49.457723
47.654398 -10.372764 49.476603
46.242186 -11.801913 49.495482
44.534052 -12.526336 49.554096
43.121840 -13.955485 49.572976
41.413706 -14.679908 49.631590
39.705571 -15.404332 49.690205
38.293359 -16.833480 49.709084
36.585225 -17.557904 49.767698
34.902693 -18.343298 49.822875
33.168956 -19.006751 49.884927
31.460821 -19.731174 49.943542
29.719288 -20.376059 50.006641
27.748630 -20.475296 50.100505
26.124185 -21.399022 50.147882
24.332361 -21.924143 50.217734
22.529083 -22.421986 50.289124
20.522283 -22.435151 50.387842
18.616113 -22.687963 50.473047
16.927181 -23.458115 50.529084
14.920381 -23.471280 50.627801
12.913581 -23.484446 50.726519
10.906781 -23.497612 50.825237
8.899981 -23.510778 50.923955
6.893181 -23.523943 51.022672
4.886381 -23.537109 51.121390
