ply
format ascii 1.0
element vertex 1338
property float x
property float y
property float z
end_header
1.250467 -23.733865 52.155460
-0.237111 -22.579856 52.270100
-2.237761 -22.378872 52.376144
-4.011180 -21.755810 52.485996
-5.725988 -21.023880 52.596829
-7.726638 -20.822895 52.702873
-9.635624 -20.451646 52.810452
-11.214865 -19.467903 52.923557
-12.702442 -18.313894 53.038198
-14.534473 -17.799702 53.147067
-16.167423 -16.915721 53.259272
-17.678247 -15.804894 53.373523
-19.433322 -15.147758 53.483681
-21.066272 -14.263777 53.595886
-22.654051 -13.295893 53.708848
-23.237054 -11.601262 53.798042
-24.870004 -10.717280 53.910247
-26.502954 -9.833299 54.022452
-27.773106 -8.275428 54.140735
-29.043258 -6.717556 54.259019
-30.313411 -5.159685 54.377303
-31.583563 -3.601814 54.495587
-32.666469 -1.987522 54.606626
-33.391548 -0.265409 54.703821
-34.329014 1.392707 54.809233
-35.160287 3.082822 54.910537
-35.737367 4.849530 55.002006
-36.822832 6.463051 55.113144
-36.618449 8.465229 55.174379
-37.350865 10.185131 55.271858
-37.245338 12.157522 55.336917
-37.040954 14.159701 55.398152
-36.836571 16.161879 55.459387
-36.632188 18.164057 55.520621
-35.476238 19.654537 55.516593
-35.271855 21.656715 55.577828
-34.115905 23.147194 55.573799
-33.911522 25.149373 55.635034
-32.927825 26.732480 55.642820
-31.599623 28.130331 55.626977
-30.482295 29.641579 55.625598
-28.923101 30.915216 55.593913
-27.363907 32.188852 55.562228
-26.477571 33.824315 55.576691
-24.918377 35.097951 55.545006
-23.139936 35.639226 55.476392
-21.580742 36.912863 55.444707
-20.021548 38.186500 55.413022
-18.243107 38.727775 55.344407
-16.683913 40.001412 55.312722
-14.791158 40.160834 55.224852
-13.100569 40.995566 55.171035
-11.348591 41.625237 55.106878
-9.570151 42.166512 55.038263
-7.718741 42.464045 54.957357
-6.013269 43.249062 54.901034
-4.027503 43.097793 54.797497
-2.336914 43.932524 54.743680
-0.336264 43.731540 54.637636
1.354325 44.566272 54.583819
3.354975 44.365287 54.477775
5.355625 44.164303 54.371731
7.312801 44.108540 54.273010
9.046864 44.798051 54.211870
11.047514 44.597067 54.105827
13.048164 44.396082 53.999783
15.048814 44.195098 53.893739
17.049465 43.994114 53.787695
19.050115 43.793130 53.681651
20.537692 42.639122 53.567011
22.538342 42.438137 53.460967
24.538992 42.237153 53.354923
26.356426 41.695848 53.245809
28.027219 40.882161 53.134239
29.622325 39.927885 53.021400
31.515446 39.527168 52.913554
33.251022 38.833813 52.803069
35.003674 38.172176 52.692870
36.516921 37.065850 52.578659
38.149871 36.181868 52.466454
39.979478 35.663175 52.357545
41.415771 34.413906 52.242045
42.954632 33.355158 52.128263
44.318873 31.972053 52.011556
45.929787 31.047141 51.898982
47.221975 29.530201 51.781067
48.854924 28.646219 51.668863
50.125077 27.088348 51.550579
51.511626 26.130121 51.447907
52.295859 24.425833 51.348423
53.174171 22.749892 51.245300
54.152593 21.179978 51.141006
55.736794 20.205447 51.027984
55.727449 18.262037 50.959203
56.812460 16.648379 50.848083
57.389995 14.881808 50.756596
57.888126 13.091312 50.668181
58.016884 11.189515 50.594058
58.848156 9.499401 50.492754
58.643773 7.497222 50.431519
58.439390 5.495044 50.370285
58.235006 3.492866 50.309050
58.030623 1.490687 50.247815
57.001667 -0.068082 50.243134
56.670290 -2.001971 50.190609
55.901855 -3.700833 50.168060
55.015519 -5.336296 50.153596
54.154008 -6.985108 50.137431
53.242848 -8.607221 50.124670
51.683654 -9.880858 50.156355
50.686160 -11.456546 50.149516
49.238125 -12.789957 50.173577
48.344467 -14.400960 50.160347
46.573349 -14.966695 50.227729
45.545333 -16.128895 50.237130
43.854744 -16.963627 50.290947
42.130132 -17.684707 50.350495
40.351691 -18.225982 50.419110
38.792497 -19.499619 50.450795
37.092389 -20.302553 50.506215
35.401800 -21.137285 50.560032
33.676422 -21.855806 50.619709
31.710561 -21.771032 50.719893
30.019973 -22.605764 50.773710
28.121853 -22.747269 50.862483
26.343413 -23.288544 50.931098
24.638145 -24.074243 50.987388
22.637495 -23.873259 51.093432
20.946906 -24.707991 51.147249
18.946256 -24.507006 51.253292
16.945606 -24.306022 51.359336
15.234276 -25.071471 51.416647
13.254367 -24.939770 51.519197
11.253717 -24.738785 51.625241
9.253067 -24.537801 51.731285
7.252417 -24.336817 51.837328
5.251767 -24.135833 51.943372
3.251117 -23.934849 52.049416
-13.430513 -59.442253 -46.023600
-15.108735 -58.604528 -45.869447
-17.099402 -58.802804 -45.689762
-18.777624 -57.965078 -45.535609
-20.768292 -58.163354 -45.355924
-22.758959 -58.361630 -45.176238
-24.479427 -57.663982 -45.018634
-26.427849 -57.722181 -44.842400
-28.236042 -57.315413 -44.677627
-30.096738 -57.082732 -44.508563
-31.992658 -56.966844 -44.336620
-33.760499 -56.426278 -44.175144
-35.443850 -55.605557 -44.020572
-37.122072 -54.767832 -43.866420
-39.112739 -54.966108 -43.686735
-40.898845 -54.913821 -43.524902
-41.927629 -53.362182 -43.427646
-43.879285 -53.431108 -43.251148
-45.119316 -52.709946 -43.136975
-46.655164 -51.697831 -42.995248
-48.547849 -51.571217 -42.823570
-50.094758 -50.298087 -42.680148
-51.862600 -49.757521 -42.518672
-53.409509 -48.484391 -42.375251
-54.625623 -47.647254 -42.262934
-56.143931 -46.613654 -42.122738
-57.756091 -46.348305 -41.976087
-58.919810 -44.880377 -41.866838
-60.683628 -44.326469 -41.705691
-62.230537 -43.053339 -41.562269
-63.954476 -42.367202 -41.404381
-64.328923 -40.585807 -41.365751
-65.748041 -39.243986 -41.233716
-67.294950 -37.970856 -41.090295
-68.841859 -36.697726 -40.946873
-70.388768 -35.424596 -40.803452
-71.016657 -33.657463 -40.741916
-72.138430 -32.155809 -40.636375
-73.013261 -30.521415 -40.552836
-73.508559 -28.683011 -40.503114
-74.656013 -27.195161 -40.395285
-75.637754 -25.618235 -40.302220
-76.000460 -23.708558 -40.264312
-76.197453 -21.709804 -40.241169
-76.918091 -19.992527 -40.171369
-77.541900 -18.223201 -40.110197
-77.738892 -16.224448 -40.087054
-77.935885 -14.225694 -40.063911
-77.841639 -12.315430 -40.067369
-77.298159 -10.541661 -40.111858
-77.495151 -8.542907 -40.088715
-76.954798 -6.768188 -40.132918
-76.416008 -4.992994 -40.176979
-76.022707 -3.173595 -40.207751
-76.067958 -1.220946 -40.198468
-75.384981 0.510438 -40.255697
-74.260848 2.107782 -40.353220
-73.715545 3.880997 -40.397876
-72.880826 5.566277 -40.468965
-71.914948 7.211705 -40.552034
-70.646628 8.765240 -40.662726
-69.975313 10.291792 -40.719444
-68.479886 11.419230 -40.851828
-67.618072 13.096277 -40.925392
-66.313143 14.073221 -41.040931
-65.044824 15.626756 -41.151623
-63.776504 17.180290 -41.262316
-62.172055 18.103184 -41.405113
-60.689985 19.255683 -41.536221
-59.342275 20.518763 -41.654872
-58.306409 21.502856 -41.746033
-56.725904 22.470672 -41.886543
-55.457584 24.024207 -41.997236
-53.860199 24.960353 -42.139358
-52.201679 25.781800 -42.287320
-50.573727 26.660597 -42.432361
-49.305407 28.214132 -42.543054
-47.423321 28.616127 -42.712369
-45.941251 29.768626 -42.843477
-44.421550 30.850522 -42.978179
-42.468514 31.119401 -43.154271
-40.806012 31.933378 -43.302612
-38.995776 32.470176 -43.465065
-37.190475 33.016234 -43.627045
-35.523038 33.820952 -43.775858
-33.934570 34.773828 -43.917129
-32.050301 35.171727 -44.086652
-30.319033 35.856684 -44.241562
-28.577563 36.522502 -44.397446
-26.586896 36.720778 -44.577132
-24.596228 36.919054 -44.756817
-22.605561 37.117330 -44.936503
-20.614893 37.315606 -45.116189
-18.624226 37.513882 -45.295874
-16.765570 37.959836 -45.462951
-15.151488 38.864657 -45.606668
-13.375125 38.352346 -45.768840
-11.482599 38.225208 -45.940506
-9.491931 38.423484 -46.120191
-7.501264 38.621760 -46.299877
-5.510596 38.820036 -46.479563
-3.832374 37.982311 -46.633715
-1.841707 38.180587 -46.813400
0.148961 38.378863 -46.993086
2.093201 38.423196 -47.168978
3.817850 37.739414 -47.326924
5.808518 37.937690 -47.506609
7.617658 37.534061 -47.671461
9.385500 36.993495 -47.832937
11.155629 36.460515 -47.994600
12.921183 35.912362 -48.155889
14.824519 35.821066 -48.328438
16.815186 36.019342 -48.508123
17.773561 34.661963 -48.598489
19.591065 34.286066 -48.764024
21.530177 34.313394 -48.939496
23.259955 33.646616 -49.097861
24.844928 32.499698 -49.244393
26.612769 31.959132 -49.405869
28.294620 31.133441 -49.560318
29.972842 30.295715 -49.714471
31.695361 29.604869 -49.872243
32.920116 28.772376 -49.985329
34.426943 27.724714 -50.124523
36.050584 27.473427 -50.272177
37.202822 25.991437 -50.380424
39.181052 26.174479 -50.559024
40.065244 24.545117 -50.643397
41.475961 23.198779 -50.774683
42.486984 21.637593 -50.870357
43.713419 20.806003 -50.983593
45.129656 19.462634 -51.115371
46.676566 18.189504 -51.258793
47.551397 16.555110 -51.342331
49.098306 15.281980 -51.485753
49.973137 13.647587 -51.569291
50.847968 12.013193 -51.652830
52.608314 11.447773 -51.813693
52.835603 9.486130 -51.839480
53.983058 7.998280 -51.947310
54.568224 6.208183 -52.005039
55.327505 4.511677 -52.078282
55.645808 2.578132 -52.112234
56.671952 1.025074 -52.209255
56.297409 -0.800025 -52.180196
56.034226 -2.658959 -52.161308
57.162959 -4.156872 -52.267470
57.378673 -6.145562 -52.292281
57.575666 -8.144316 -52.315423
56.740947 -9.829595 -52.244334
56.937940 -11.828349 -52.267477
56.696641 -13.693932 -52.250588
56.300214 -15.512382 -52.219530
56.348591 -17.465980 -52.229099
55.080271 -19.019515 -52.118407
54.400351 -20.529922 -52.060867
52.913529 -21.673506 -51.929305
52.374738 -23.448700 -51.885244
52.266163 -25.354610 -51.880478
51.297158 -26.999088 -51.797123
50.596726 -28.725169 -51.738299
49.130416 -29.653079 -51.608021
47.862096 -31.206613 -51.497329
46.593776 -32.760148 -51.386636
46.054986 -34.535342 -51.342576
44.516864 -35.582677 -51.206114
43.158714 -36.967673 -51.086841
42.575373 -38.729331 -51.038712
40.651219 -38.982349 -50.865193
39.169149 -40.134848 -50.734085
37.736067 -41.379258 -50.607655
36.205008 -42.439846 -50.471868
34.839795 -43.811590 -50.351921
33.240868 -44.744845 -50.209652
31.758798 -45.897344 -50.078543
29.955937 -46.447980 -49.916796
28.286060 -47.248119 -49.767750
26.700032 -48.205574 -49.626712
25.321920 -49.553117 -49.505533
23.444128 -49.963168 -49.336628
22.175808 -51.516702 -49.225936
20.367113 -52.056392 -49.063631
18.376445 -52.254668 -48.883945
16.894375 -53.407167 -48.752837
14.903707 -53.605443 -48.573151
13.316780 -54.561211 -48.432028
11.430970 -54.956218 -48.262358
9.440302 -55.154494 -48.082672
7.958232 -56.306993 -47.951564
5.967565 -56.505269 -47.771878
3.976897 -56.703545 -47.592193
1.986230 -56.901821 -47.412507
-0.004438 -57.100097 -47.232821
-1.505002 -58.217898 -47.099947
-3.477175 -58.450873 -46.922028
-5.467843 -58.649149 -46.742342
-7.458510 -58.847425 -46.562656
-9.449178 -59.045701 -46.382971
-11.439845 -59.243977 -46.203285
-20.864249 -57.363455 -43.839567
-22.337930 -56.203138 -43.703075
-24.325770 -55.994281 -43.522564
-26.313609 -55.785424 -43.342052
-28.078420 -55.163848 -43.180636
-29.775130 -54.416251 -43.025049
-31.762970 -54.207394 -42.844538
-33.670831 -53.850534 -42.670874
-35.224491 -52.838220 -42.527534
-37.212331 -52.629364 -42.347023
-38.899676 -51.864437 -42.192238
-40.673852 -51.260190 -42.030020
-42.506762 -50.764634 -41.862773
-44.135373 -49.891017 -41.713016
-45.750283 -48.992046 -41.564433
-47.596894 -48.521843 -41.396013
-48.993803 -47.219459 -41.266093
-50.544256 -46.201209 -41.123028
-52.237324 -45.446872 -40.967753
-53.859084 -44.560578 -40.818583
-55.479458 -43.671719 -40.669532
-56.371793 -42.570276 -40.585825
-57.846602 -41.412047 -40.449236
-59.320283 -40.251731 -40.312743
-60.873508 -39.238611 -40.169441
-62.267646 -37.931097 -40.039758
-63.753464 -36.793240 -39.902227
-65.011659 -35.234163 -39.784183
-66.633420 -34.347869 -39.635013
-67.347361 -32.626654 -39.565809
-68.541675 -31.239015 -39.454003
-70.040758 -30.125706 -39.315336
-71.298954 -28.566629 -39.197292
-71.826337 -26.789837 -39.144829
-73.342023 -25.707250 -39.004741
-73.975481 -24.126751 -38.943196
-75.233676 -22.567674 -38.825152
-75.761059 -20.790882 -38.772689
-76.961486 -19.214595 -38.659829
-77.546638 -17.455013 -38.602182
-77.578044 -15.530466 -38.594227
-78.403085 -13.842348 -38.515053
-78.397976 -11.906923 -38.510374
-79.019643 -10.158219 -38.449451
-78.811160 -8.162207 -38.463022
-79.249314 -6.358834 -38.418567
-79.427718 -4.478078 -38.397420
-79.219235 -2.482067 -38.410992
-79.010752 -0.486055 -38.424563
-78.802269 1.509957 -38.438135
-78.593786 3.505969 -38.451706
-77.437838 4.985949 -38.552422
-77.159140 6.943718 -38.572451
-76.073407 8.461941 -38.666708
-75.864924 10.457953 -38.680280
-75.179872 12.194404 -38.737684
-73.626837 13.458113 -38.874921
-72.397079 14.897894 -38.982425
-71.241131 16.377874 -39.083140
-70.307651 17.979020 -39.163393
-68.929235 19.337835 -39.284570
-67.871541 20.871329 -39.376248
-66.318506 22.135038 -39.513485
-64.765471 23.398747 -39.650722
-63.212437 24.662457 -39.787960
-62.202028 26.221705 -39.875289
-60.559673 26.821019 -40.022377
-59.587865 28.149106 -40.106825
-57.690256 28.245836 -40.278356
-56.137221 29.509545 -40.415593
-54.584187 30.773255 -40.552831
-52.862082 31.464372 -40.706894
-51.180637 32.293189 -40.856912
-49.491776 33.096892 -41.007667
-47.722088 33.626855 -41.166466
-45.952400 34.156819 -41.325266
-44.182712 34.686783 -41.484066
-42.467014 35.399597 -41.637492
-40.785569 36.228414 -41.787509
-38.873648 36.276674 -41.960464
-37.116283 36.848373 -42.118037
-35.334272 37.336601 -42.278063
-33.564584 37.866565 -42.436863
-31.794895 38.396528 -42.595662
-30.084106 39.125966 -42.748600
-28.096266 38.917109 -42.929111
-26.108427 38.708252 -43.109622
-24.426981 39.537069 -43.259640
-22.439141 39.328212 -43.440151
-20.526807 39.375073 -43.613147
-18.769856 39.948172 -43.770679
-16.782016 39.739315 -43.951190
-14.794176 39.530458 -44.131701
-13.014748 40.027436 -44.291470
-11.124891 40.150418 -44.462229
-9.137051 39.941561 -44.642740
-7.149211 39.732704 -44.823252
-5.675530 38.572387 -44.959744
-3.687690 38.363531 -45.140255
-1.699850 38.154674 -45.320766
0.287989 37.945817 -45.501277
2.275829 37.736960 -45.681788
4.263669 37.528104 -45.862299
5.814251 36.510093 -46.005375
7.725190 36.158930 -46.179303
9.198871 34.998613 -46.315795
11.186711 34.789756 -46.496306
13.174551 34.580900 -46.676817
15.013747 34.096976 -46.844603
16.636072 33.211726 -46.993821
18.620833 32.997172 -47.174068
20.097593 31.842553 -47.310824
21.864353 31.224585 -47.472408
23.486114 30.338291 -47.621578
25.032795 29.313062 -47.764320
26.506476 28.152745 -47.900813
27.987829 27.006626 -48.037962
29.609590 26.120333 -48.187132
31.231350 25.234039 -48.336302
32.853110 24.347745 -48.485472
34.389040 23.302621 -48.627293
35.733066 21.902374 -48.752685
37.336403 20.981988 -48.900278
38.810084 19.821671 -49.036770
40.234782 18.570709 -49.169069
41.492977 17.011632 -49.287113
42.751172 15.452554 -49.405157
44.372932 14.566261 -49.554327
45.625237 13.569903 -49.670343
46.522076 11.903175 -49.755960
48.031475 10.808955 -49.895510
48.671220 9.240090 -49.957593
49.198603 7.463298 -50.010056
49.811295 5.711920 -50.070174
50.984181 4.127429 -50.180563
52.242377 2.568351 -50.298607
52.769760 0.791559 -50.351070
53.297143 -0.985232 -50.403533
53.936501 -2.728666 -50.466044
54.351910 -4.538816 -50.508459
54.879293 -6.315608 -50.560922
55.378100 -8.100913 -50.610820
55.203248 -10.086906 -50.600267
55.994658 -11.785042 -50.676423
55.786175 -13.781054 -50.662851
55.577692 -15.777065 -50.649279
55.369209 -17.773077 -50.635708
54.714275 -19.525932 -50.581074
54.004778 -21.249069 -50.521421
53.796295 -23.245081 -50.507850
53.587812 -25.241093 -50.494278
52.521891 -26.770106 -50.401843
51.638815 -28.398704 -50.326226
51.067433 -30.197065 -50.279276
50.542623 -32.020791 -50.236610
48.989589 -33.284501 -50.099373
47.599588 -34.637006 -49.977131
46.553478 -36.176809 -49.886518
45.487771 -37.186883 -49.792725
44.192596 -38.494343 -49.678947
43.017639 -39.963970 -49.576484
41.880700 -41.454304 -49.477517
40.364875 -42.122533 -49.342067
38.811841 -43.386242 -49.204830
37.526243 -44.795610 -49.092190
36.159077 -45.544805 -48.970413
34.389648 -46.075647 -48.811639
33.232639 -47.554312 -48.710824
31.913369 -48.831915 -48.594786
29.966937 -48.763294 -48.418396
28.413903 -50.027004 -48.281159
26.644215 -50.556967 -48.122360
25.740526 -52.174339 -48.044846
23.779965 -51.999285 -47.866895
22.098519 -52.828102 -47.716877
20.417074 -53.656918 -47.566860
18.429234 -53.448061 -47.386349
16.696045 -54.101639 -47.231182
15.066343 -55.105694 -47.086314
13.373323 -55.895312 -46.935145
11.397057 -55.725654 -46.755786
9.715611 -56.554470 -46.605769
7.727772 -56.345614 -46.425258
5.861264 -56.547675 -46.256822
4.058486 -56.965573 -46.094729
2.321888 -57.607602 -45.939223
0.389201 -57.585533 -45.764201
-1.598639 -57.376676 -45.583690
-3.280085 -58.205493 -45.433673
-5.267924 -57.996636 -45.253162
-7.255764 -57.787779 -45.072651
-9.243604 -57.578922 -44.892140
-11.231444 -57.370065 -44.711629
-13.219284 -57.161209 -44.531117
-15.121878 -57.241055 -44.359090
-16.888569 -57.781168 -44.200589
-18.876409 -57.572312 -44.020078
-6.296331 -59.506602 -45.975088
-7.979767 -58.676949 -45.820485
-9.970792 -58.884761 -45.640793
-11.961817 -59.092572 -45.461100
-13.952843 -59.300383 -45.281407
-15.943868 -59.508194 -45.101715
-17.627304 -58.678542 -44.947112
-19.618329 -58.886353 -44.767419
-21.609354 -59.094164 -44.587727
-23.543704 -59.110814 -44.412657
-25.283815 -58.472322 -44.253431
-27.086455 -58.044731 -44.089105
-28.857831 -57.511689 -43.927329
-30.641712 -57.020828 -43.764533
-32.400582 -56.445606 -43.603777
-34.316173 -56.398986 -43.430237
-35.999609 -55.569333 -43.275634
-37.932208 -55.580078 -43.100708
-39.674070 -54.947492 -42.941339
-41.257460 -53.780397 -42.794897
-43.040942 -53.288186 -42.632133
-44.800212 -52.714313 -42.471345
-46.407813 -51.628880 -42.322928
-48.125465 -50.914632 -42.165534
-49.896840 -50.381590 -42.003758
-51.668216 -49.848548 -41.841982
-53.222093 -48.581909 -41.697947
-54.775970 -47.315269 -41.553912
-56.329847 -46.048629 -41.409877
-58.101223 -45.515587 -41.248101
-59.864273 -44.978019 -41.087067
-60.756097 -43.351472 -41.002011
-62.173370 -42.010571 -40.870145
-63.193472 -40.453760 -40.773661
-64.747349 -39.187120 -40.629627
-66.301226 -37.920480 -40.485592
-67.184724 -36.289407 -40.401277
-68.738601 -35.022767 -40.257242
-69.622099 -33.391694 -40.172928
-70.505597 -31.760621 -40.088614
-71.409755 -30.140780 -40.002459
-72.272593 -28.498475 -39.919985
-73.718852 -27.173332 -39.785537
-73.925341 -25.174221 -39.761533
-74.131830 -23.175111 -39.737530
-74.338318 -21.176000 -39.713527
-75.349324 -19.614243 -39.617853
-75.699356 -17.693166 -39.581062
-75.905844 -15.694055 -39.557059
-76.112333 -13.694945 -39.533056
-75.285653 -12.004432 -39.603403
-75.492142 -10.005322 -39.579400
-75.383757 -8.100261 -39.584151
-74.871951 -6.315698 -39.625744
-75.051724 -4.324568 -39.604180
-74.251759 -2.626075 -39.672088
-73.425079 -0.935562 -39.742436
-73.457833 1.011655 -39.734298
-72.195976 2.572184 -39.844387
-71.664679 4.350925 -39.887760
-70.402821 5.911455 -39.997849
-69.140963 7.471984 -40.107938
-67.879105 9.032513 -40.218027
-66.617247 10.593043 -40.328115
-65.778469 12.279942 -40.399568
-64.461303 13.259282 -40.516208
-63.199445 14.819811 -40.626297
-61.804754 16.133914 -40.749065
-60.312940 17.267839 -40.881105
-59.051082 18.828368 -40.991194
-57.426435 19.715867 -41.135913
-56.164577 21.276396 -41.246002
-54.902719 22.836926 -41.356091
-53.278071 23.724424 -41.500811
-51.459013 24.251260 -41.664088
-49.981050 25.410881 -41.794806
-48.404129 26.386919 -41.934969
-46.779481 27.274417 -42.079689
-45.154834 28.161916 -42.224409
-43.556136 29.097555 -42.366651
-41.905538 29.936912 -42.513848
-40.087148 30.464987 -42.677061
-38.609185 31.624608 -42.807779
-36.618159 31.832419 -42.987471
-35.044158 32.813875 -43.127356
-33.149171 33.199852 -43.297882
-31.432074 33.915841 -43.451426
-29.680183 34.567284 -43.608292
-27.689158 34.775095 -43.787984
-26.195341 35.905305 -43.920215
-24.220170 36.142527 -44.098395
-22.229144 36.350339 -44.278087
-20.238119 36.558150 -44.457780
-18.247094 36.765961 -44.637472
-16.256069 36.973772 -44.817165
-14.633507 37.865140 -44.961686
-12.787080 38.341205 -45.127575
-11.103645 37.511552 -45.282178
-9.112619 37.719363 -45.461871
-7.121594 37.927174 -45.641563
-5.130569 38.134986 -45.821256
-3.139544 38.342797 -46.000949
-1.204294 38.362485 -46.176092
0.534917 37.720955 -46.335244
2.525943 37.928767 -46.514937
4.516968 38.136578 -46.694629
6.200404 37.306925 -46.849232
8.087582 37.164472 -47.020454
9.874865 36.685083 -47.183528
11.847832 36.831987 -47.361747
13.549326 36.063242 -47.517823
15.390583 35.765903 -47.685299
17.161959 35.232861 -47.847076
18.907223 34.611747 -48.006722
20.898248 34.819558 -48.186414
22.090428 34.039445 -48.296413
23.684831 33.099686 -48.443248
25.565957 32.936817 -48.613976
27.119834 31.670178 -48.758011
28.891209 31.137136 -48.919787
30.726164 30.818538 -49.086749
31.763582 29.706619 -49.183619
33.317459 28.439979 -49.327654
35.196183 28.269012 -49.498186
36.189831 27.009462 -49.591485
37.982766 26.549139 -49.755020
39.732582 25.943379 -49.915037
41.286459 24.676739 -50.059072
42.840337 23.410099 -50.203107
44.394214 22.143460 -50.347142
46.092356 21.363410 -50.502944
46.597800 19.734015 -50.553030
47.932585 18.348272 -50.677547
49.486462 17.081632 -50.821582
50.061444 15.282843 -50.878412
51.253458 13.819486 -50.990211
52.807335 12.552846 -51.134245
53.690833 10.921773 -51.218560
54.679637 9.347947 -51.312256
55.457829 7.659627 -51.387189
56.341327 6.028554 -51.471503
57.195223 4.381388 -51.553181
57.401711 2.382278 -51.577184
57.608200 0.383167 -51.601187
58.534560 -1.224605 -51.689320
58.969237 -3.099667 -51.733652
59.175726 -5.098777 -51.757655
59.382215 -7.097888 -51.781658
59.588704 -9.096998 -51.805662
59.277181 -10.941384 -51.782359
58.968513 -12.786622 -51.759318
59.175002 -14.785732 -51.783321
58.413850 -16.495818 -51.718958
57.548717 -17.655240 -51.643718
56.634780 -19.274626 -51.565282
55.808099 -20.965138 -51.494935
56.014588 -22.964249 -51.518938
55.031786 -24.043460 -51.432833
54.301046 -25.762629 -51.371247
53.701856 -27.104992 -51.320569
52.587505 -28.561010 -51.223556
51.450458 -29.594150 -51.123365
50.873963 -31.359391 -51.075865
49.463643 -32.574151 -50.951417
48.032656 -33.820919 -50.825184
47.300572 -35.539687 -50.763475
45.876711 -36.487158 -50.637092
45.225430 -38.043310 -50.582266
43.357977 -38.480366 -50.414369
42.096119 -40.040896 -50.304280
40.834261 -41.601425 -50.194191
39.313578 -42.681793 -50.059396
37.835615 -43.841414 -49.928678
36.323108 -44.936951 -49.794663
34.698461 -45.824450 -49.649944
33.073813 -46.711948 -49.505224
31.449166 -47.599446 -49.360505
29.932738 -48.687709 -49.226115
28.199870 -49.374443 -49.071066
26.463750 -50.055141 -48.915705
24.950575 -51.149440 -48.781626
22.994761 -51.422573 -48.605295
21.701280 -52.924437 -48.492187
20.038835 -53.741815 -48.343860
18.047810 -53.949626 -48.164167
16.464548 -54.913901 -48.023398
14.578822 -55.317059 -47.853757
12.587797 -55.524870 -47.674064
10.865025 -56.230334 -47.519978
9.118808 -56.892302 -47.363654
7.127783 -57.100113 -47.183962
5.136758 -57.307925 -47.004269
3.278066 -57.761234 -46.837208
1.667770 -58.675357 -46.693859
-0.323255 -58.883168 -46.514166
-2.314281 -59.090980 -46.334473
-4.305306 -59.298791 -46.154781
4.672817 -32.562536 -21.927874
3.188197 -31.419561 -21.733136
1.200003 -31.233869 -21.498466
-0.788191 -31.048177 -21.263797
-2.776384 -30.862485 -21.029127
-4.764578 -30.676794 -20.794457
-6.752772 -30.491102 -20.559787
-8.237392 -29.348126 -20.365049
-10.134329 -28.988958 -20.137615
-11.710206 -28.019459 -19.935641
-13.698400 -27.833767 -19.700971
-15.183020 -26.690792 -19.506233
-17.171213 -26.505100 -19.271563
-18.988205 -25.993957 -19.050469
-20.616548 -25.124196 -18.844334
-22.128647 -24.033457 -18.647416
-23.613267 -22.890482 -18.452678
-25.501578 -22.514914 -18.225929
-26.773840 -20.968251 -18.048029
-28.570701 -20.418839 -17.828532
-30.055321 -19.275864 -17.633793
-31.658869 -18.358968 -17.429624
-33.024561 -16.989913 -17.244317
-34.717173 -16.557679 -17.039210
-35.461063 -14.846504 -16.919522
-37.089406 -13.976743 -16.713387
-38.361669 -12.430080 -16.535488
-39.868400 -11.329137 -16.338996
-41.262275 -10.013657 -16.151454
-42.534537 -8.466994 -15.973554
-43.806800 -6.920332 -15.795655
-45.079063 -5.373669 -15.617756
-46.351326 -3.827006 -15.439857
-47.623588 -2.280344 -15.261958
-48.169096 -0.507401 -15.164125
-49.004548 1.175266 -15.034350
-49.986866 2.812205 -14.888394
-51.259129 4.358867 -14.710495
-51.521081 6.220097 -14.643902
-51.623389 8.131034 -14.594897
-52.170983 9.903327 -14.496835
-51.987650 11.903200 -14.479299
-52.820885 13.586557 -14.349768
-52.631942 15.588177 -14.332850
-52.443000 17.589796 -14.315932
-52.254057 19.591415 -14.299015
-52.065114 21.593035 -14.282097
-51.876172 23.594654 -14.265179
-51.687229 25.596274 -14.248262
-51.498287 27.597893 -14.231344
-50.846672 29.353685 -14.272971
-50.170465 31.096409 -14.317711
-49.111150 32.635580 -14.410928
-48.842644 34.594925 -14.404078
-47.703765 36.091822 -14.507362
-46.507866 37.558422 -14.617862
-45.426007 39.085615 -14.713932
-44.100637 40.483425 -14.840814
-43.148249 42.079408 -14.920501
-41.693407 43.408427 -15.063766
-40.153939 44.692482 -15.217740
-38.614472 45.976536 -15.371714
-37.075004 47.260591 -15.525688
-36.108669 48.578674 -15.612393
-34.444593 49.454590 -15.788776
-32.905125 50.738645 -15.942750
-31.365658 52.022700 -16.096724
-29.734025 53.004880 -16.267272
-27.840359 53.128803 -16.484943
-26.300891 54.412857 -16.638917
-24.538242 54.965909 -16.833026
-22.998774 56.249963 -16.987000
-21.236125 56.803015 -17.181109
-19.382993 57.059702 -17.391491
-17.710426 57.907805 -17.569400
-15.724996 57.731166 -17.803573
-14.049664 58.570216 -17.981980
-12.377097 59.418318 -18.159890
-10.660230 60.121324 -18.345766
-8.716335 60.080729 -18.572469
-7.043768 60.928832 -18.750379
-5.055574 60.743140 -18.985049
-3.163270 60.871524 -19.202474
-1.394813 61.405551 -19.397628
0.593381 61.219859 -19.632298
2.347859 61.799675 -19.824938
4.254143 61.882270 -20.044878
6.242336 61.696579 -20.279547
8.230530 61.510887 -20.514217
10.218724 61.325195 -20.748887
12.053831 61.640920 -20.956027
13.879485 61.987606 -21.161466
15.763385 61.603654 -21.387866
17.352299 60.658939 -21.590875
19.340493 60.473247 -21.825544
21.328686 60.287555 -22.060214
23.316880 60.101863 -22.294884
25.305074 59.916171 -22.529554
26.789694 58.773196 -22.724292
28.777888 58.587504 -22.958962
30.262508 57.444529 -23.153700
32.250701 57.258837 -23.388370
34.238895 57.073145 -23.623040
36.167721 56.774597 -23.853002
37.711709 55.744478 -24.052448
39.196329 54.601502 -24.247186
40.696670 53.488412 -24.443171
42.325013 52.618651 -24.649306
44.153763 52.129860 -24.871333
45.937780 51.556031 -25.089812
47.210042 50.009369 -25.267711
49.111197 49.658217 -25.495479
50.466729 48.269847 -25.679981
52.080437 47.372266 -25.884956
53.367334 45.853424 -26.064015
54.995677 44.983663 -26.270150
56.534297 43.943340 -26.469171
57.896283 42.567239 -26.654185
59.168546 41.020577 -26.832084
60.484584 39.557130 -27.013454
62.069152 38.604153 -27.216118
63.341414 37.057491 -27.394017
63.950832 35.304447 -27.498890
65.159185 33.737885 -27.669749
66.431447 32.191222 -27.847648
67.703710 30.644560 -28.025547
68.975973 29.097897 -28.203446
69.521480 27.324954 -28.301279
70.066988 25.552011 -28.399111
70.850529 23.853182 -28.523167
71.689373 22.171571 -28.653317
71.500431 20.169952 -28.670234
72.249019 18.460239 -28.790440
73.178119 16.806731 -28.930533
72.989177 14.805111 -28.947451
72.800234 12.803492 -28.964369
72.611291 10.801872 -28.981286
72.422349 8.800253 -28.998204
72.233406 6.798634 -29.015122
72.044464 4.797014 -29.032039
71.855521 2.795395 -29.048957
71.292511 0.992526 -29.018541
70.527700 -0.703121 -28.962590
70.228695 -2.646262 -28.965581
69.199878 -4.201637 -28.876223
69.010935 -6.203257 -28.893141
67.625411 -7.569105 -28.758646
66.085943 -8.853159 -28.604672
65.218181 -10.494107 -28.535694
64.350420 -12.135055 -28.466716
62.810952 -13.419109 -28.312742
61.271484 -14.703164 -28.158768
60.192718 -15.652990 -28.051844
59.005016 -17.090534 -27.941733
57.550131 -17.807108 -27.786567
56.010663 -19.091162 -27.632593
54.471195 -20.375217 -27.478619
52.931728 -21.659272 -27.324645
51.169078 -22.212323 -27.130536
50.274520 -23.765502 -27.056738
48.538668 -24.406322 -26.867448
46.776019 -24.959374 -26.673339
45.236551 -26.243428 -26.519365
43.473901 -26.796480 -26.325255
41.596056 -26.972221 -26.110430
39.948603 -27.902583 -25.937036
38.250921 -28.668427 -25.754610
36.423305 -29.008686 -25.548818
34.590160 -29.330838 -25.342031
32.898006 -30.114789 -25.160599
31.135357 -30.667841 -24.966489
29.256831 -30.841352 -24.751541
27.584263 -31.689454 -24.573632
25.596069 -31.503763 -24.338962
23.638397 -31.418040 -24.109781
21.935308 -32.166174 -23.926382
20.113099 -32.524143 -23.721562
18.274547 -32.828585 -23.513803
16.286353 -32.642893 -23.279133
14.298159 -32.457201 -23.044463
12.616139 -33.274343 -22.864854
10.637398 -33.119612 -22.631884
8.649204 -32.933920 -22.397214
6.661011 -32.748228 -22.162544
7.052480 -31.567810 -22.870755
5.380108 -30.734561 -22.660212
3.396815 -30.937963 -22.433669
1.413522 -31.141365 -22.207126
-0.435245 -30.896238 -21.987505
-2.242143 -30.511518 -21.770040
-4.225437 -30.714920 -21.543497
-6.160965 -30.759070 -21.319411
-7.881101 -30.085074 -21.106411
-9.864395 -30.288476 -20.879867
-11.536766 -29.455227 -20.669325
-13.209138 -28.621979 -20.458782
-15.192431 -28.825381 -20.232239
-16.282772 -27.922657 -20.087989
-17.958171 -27.099502 -19.877290
-19.941464 -27.302904 -19.650747
-21.613836 -26.469655 -19.440205
-23.330787 -25.785040 -19.227368
-25.092790 -25.250636 -19.012212
-26.854794 -24.716231 -18.797057
-28.614244 -24.173311 -18.582033
-29.712142 -23.286262 -18.437209
-31.250880 -22.016986 -18.233729
-33.012884 -21.482582 -18.018573
-34.555033 -20.215155 -17.814732
-36.317036 -19.680750 -17.599577
-37.218282 -18.066116 -17.463476
-38.851916 -17.185157 -17.256509
-40.493267 -16.248483 -17.047562
-42.035416 -14.981056 -16.843721
-43.577565 -13.713629 -16.639879
-45.119714 -12.446201 -16.436038
-45.991792 -10.815765 -16.303020
-47.685299 -10.052983 -16.091390
-48.160196 -8.398644 -16.004067
-48.827882 -6.657479 -15.892653
-50.370031 -5.390052 -15.688812
-50.648346 -3.437946 -15.618552
-51.793604 -1.955504 -15.456660
-52.938862 -0.473062 -15.294769
-53.858344 1.131694 -15.156740
-54.281755 3.005195 -15.071145
-54.479390 5.001009 -15.009413
-54.677024 6.996824 -14.947681
-54.874659 8.992639 -14.885949
-55.072294 10.988453 -14.824217
-55.269929 12.984268 -14.762485
-55.467563 14.980082 -14.700753
-55.144652 16.818789 -14.702569
-54.833613 18.661079 -14.702935
-54.802654 20.587901 -14.669110
-54.199663 22.342076 -14.705118
-54.397298 24.337891 -14.643386
-53.198005 25.912094 -14.752190
-52.663123 27.686825 -14.779883
-51.902543 29.393438 -14.835130
-50.865589 31.016637 -14.924116
-50.239372 32.763803 -14.962959
-49.068054 34.346449 -15.068348
-48.511936 36.081350 -15.099283
-46.911371 37.002620 -15.267404
-46.376488 38.777351 -15.295097
-44.754688 39.658791 -15.466459
-44.105247 41.398947 -15.508138
-42.800959 42.695634 -15.634535
-41.325579 43.851709 -15.783546
-39.713553 44.751482 -15.953416
-38.374820 46.163859 -16.081569
-36.829102 47.188002 -16.241318
-35.207301 48.069442 -16.412680
-33.944650 49.624523 -16.529219
-32.322850 50.505962 -16.700581
-30.490008 50.991560 -16.904158
-29.079249 52.268841 -17.043305
-27.539249 53.303710 -17.202181
-26.063869 54.459785 -17.351193
-24.213848 54.913160 -17.557392
-22.605196 55.819261 -17.726747
-20.970248 56.676039 -17.900117
-19.146524 57.178738 -18.102302
-17.367498 57.765277 -18.297664
-15.687851 58.538215 -18.477856
-14.123897 59.528156 -18.640389
-12.229178 59.897692 -18.853411
-10.245885 60.101094 -19.079954
-8.540198 60.825192 -19.264121
-6.787212 61.460571 -19.455509
-4.803918 61.663973 -19.682052
-2.820625 61.867375 -19.908595
-0.837332 62.070777 -20.135138
1.145961 62.274179 -20.361681
3.129254 62.477581 -20.588225
5.112548 62.680983 -20.814768
7.095841 62.884385 -21.041311
9.079134 63.087787 -21.267854
11.062427 63.291189 -21.494397
13.045720 63.494591 -21.720940
14.718092 62.661342 -21.931483
16.701385 62.864744 -22.158026
18.456933 62.308813 -22.372849
20.357050 62.234898 -22.595112
22.200795 61.973027 -22.814474
24.012715 61.605051 -23.032198
25.724802 60.904219 -23.244785
27.668380 60.975204 -23.469284
29.468665 60.568433 -23.686409
31.324045 60.345358 -23.906370
32.996417 59.512109 -24.116913
34.754676 58.965220 -24.331875
36.652081 58.882262 -24.553998
38.278683 57.896411 -24.762186
39.996825 57.215765 -24.975084
41.669196 56.382516 -25.185627
43.344840 55.560175 -25.396338
45.106843 55.025771 -25.611493
46.477554 54.279384 -25.785291
47.779679 52.990140 -25.961661
48.832858 51.963516 -26.103998
50.545419 51.264262 -26.316609
52.356866 50.894708 -26.534309
53.899015 49.627281 -26.738150
55.441164 48.359854 -26.941991
56.983313 47.092426 -27.145833
58.525462 45.824999 -27.349674
59.454651 44.225503 -27.488728
60.939689 42.927136 -27.686533
61.811767 41.296700 -27.819551
63.353916 40.029273 -28.023392
64.225994 38.398836 -28.156410
65.180940 36.813293 -28.298187
66.326198 35.330851 -28.460078
66.523832 33.335036 -28.521810
67.669090 31.852594 -28.683702
67.916315 29.883645 -28.750676
69.011983 28.374338 -28.907326
69.209618 26.378523 -28.969058
69.407252 24.382709 -29.030790
69.604887 22.386894 -29.092522
69.802522 20.391080 -29.154254
70.000157 18.395265 -29.215986
70.197792 16.399450 -29.277718
69.877254 14.560027 -29.276192
69.563841 12.718453 -29.275535
69.535257 10.790915 -29.309651
68.929891 9.037456 -29.273353
68.098306 7.352274 -29.209438
67.266721 5.667092 -29.145523
66.667957 3.911641 -29.110032
66.632771 1.986095 -29.143341
65.239042 1.035820 -28.999822
64.911903 -0.801611 -28.997489
63.810127 -1.840001 -28.889612
63.191035 -3.589316 -28.851638
62.012593 -5.169813 -28.745379
61.452959 -6.898119 -28.713908
59.496761 -7.152342 -28.491500
58.234110 -8.707423 -28.374961
57.605824 -10.306962 -28.333010
56.077426 -11.363594 -28.175906
54.655065 -12.619112 -28.034987
53.179685 -13.775187 -27.885976
51.571175 -14.681554 -27.716642
50.308523 -16.236635 -27.600103
48.753546 -17.243411 -27.438941
47.064923 -17.999514 -27.257379
45.802272 -19.554595 -27.140840
44.180471 -20.436034 -26.969478
42.344114 -20.915038 -26.765364
40.868734 -22.071113 -26.616352
39.315070 -23.080353 -26.455391
37.410061 -23.430589 -26.240798
35.934682 -24.586664 -26.091786
34.090520 -25.051030 -25.886481
32.476009 -25.946141 -25.716232
30.492716 -26.149543 -25.489688
28.865970 -27.021707 -25.317571
27.034043 -27.509020 -25.114134
25.263220 -28.110945 -24.920024
24.000569 -29.666026 -24.803485
22.099990 -30.024572 -24.589568
20.116697 -30.227974 -24.363025
18.444325 -29.394725 -24.152482
16.461032 -29.598127 -23.925939
14.976277 -30.736617 -23.775496
13.002359 -30.957604 -23.550384
11.019066 -31.161006 -23.323841
9.035773 -31.364408 -23.097298
-10.536239 -39.391713 75.825605
-12.057600 -38.288407 75.846649
-14.058672 -38.154998 75.840320
-16.059743 -38.021590 75.833990
-17.854618 -37.471283 75.839427
-19.582176 -36.784875 75.848705
-21.583248 -36.651467 75.842376
-23.173799 -35.688050 75.859472
-24.833790 -34.865032 75.872606
-26.627042 -34.311446 75.878135
-28.153773 -33.218996 75.898873
-30.149475 -33.074731 75.892850
-31.091440 -32.014844 75.915603
-32.607712 -30.907085 75.936787
-34.129074 -29.803779 75.957832
-35.728741 -28.858796 75.974408
-37.049527 -27.349957 76.006898
-38.370312 -25.841117 76.039387
-39.734809 -24.420656 76.069383
-40.626099 -23.264150 76.094877
-41.946884 -21.755311 76.127367
-43.267669 -20.246472 76.159857
-43.863465 -18.492523 76.202213
-44.459260 -16.738574 76.244569
-45.055056 -14.984625 76.286925
-45.881217 -13.308559 76.326147
-45.748017 -11.308147 76.378424
-45.614818 -9.307734 76.430701
-46.506910 -7.653959 76.469024
-46.373710 -5.653546 76.521301
-45.351583 -4.092599 76.566578
-45.137042 -2.132399 76.618214
-44.391521 -0.434705 76.665669
-43.900374 1.388747 76.715127
-42.745374 2.884006 76.759357
-41.693437 4.430216 76.804399
-40.413144 5.863532 76.847642
-38.903986 7.183703 76.889083
-38.383031 8.992418 76.938307
-36.903197 9.454461 76.957458
-35.258123 10.373009 76.989198
-33.748966 11.693180 77.030639
-32.239809 13.013351 77.072080
-30.485372 13.608734 77.096013
-28.730934 14.204118 77.119947
-26.978034 14.804041 77.143990
-25.323840 15.695638 77.175079
-23.669647 16.587235 77.206168
-21.713186 16.585650 77.215681
-20.014381 17.345423 77.243586
-18.360188 18.237020 77.274674
-16.359116 18.103611 77.281004
-14.450158 18.242395 77.293908
-12.703851 18.861799 77.318422
-10.702779 18.728391 77.324751
-8.701707 18.594982 77.331081
-6.700636 18.461574 77.337410
-4.699564 18.328165 77.343740
-2.698492 18.194757 77.350069
-0.697421 18.061348 77.356398
1.303651 17.927940 77.362728
3.304722 17.794531 77.369057
4.960967 16.963937 77.355710
6.827155 16.557817 77.354342
8.828227 16.424408 77.360672
10.349588 15.321102 77.339628
12.350660 15.187694 77.345957
14.278543 14.906310 77.348110
15.599329 13.397471 77.315620
17.394454 12.847673 77.310198
18.919312 11.751435 77.289353
20.437177 10.641060 77.268109
22.239295 10.105399 77.263086
23.560080 8.596559 77.230596
25.220072 7.773541 77.217462
26.880063 6.950523 77.204328
28.200849 5.441684 77.171839
28.796644 3.687735 77.129482
30.117429 2.178895 77.096993
31.212391 0.593708 77.061429
32.034010 -1.083893 77.022147
32.996574 -2.713842 76.984782
33.888665 -4.367618 76.946458
34.546386 -6.100630 76.904944
34.647557 -8.021805 76.855857
35.539648 -9.675581 76.817533
35.406449 -11.675993 76.765256
35.273250 -13.676406 76.712979
35.140051 -15.676818 76.660702
34.804007 -17.576949 76.610022
33.903383 -19.197965 76.563789
33.157861 -20.895660 76.516334
32.666715 -22.719112 76.466876
32.197799 -24.553554 76.417243
30.688642 -25.873725 76.375802
29.700754 -27.046064 76.340722
28.111131 -28.128464 76.305024
26.601974 -29.448635 76.263583
25.092817 -30.768806 76.222142
24.011070 -32.300279 76.177335
22.361150 -32.568019 76.162368
20.760869 -33.618928 76.127431
19.052762 -34.351213 76.100191
17.398568 -35.242809 76.069102
15.742838 -36.129865 76.038123
13.988401 -36.725248 76.014189
12.089109 -36.892594 76.000595
10.434915 -37.784191 75.969506
8.725090 -38.511398 75.942389
6.779650 -38.542379 75.932088
4.970936 -38.977376 75.912029
3.124385 -39.300567 75.894670
1.123313 -39.167159 75.888341
-0.537655 -40.038738 75.857736
-2.531952 -39.925347 75.850923
-4.533024 -39.791938 75.844593
-6.534095 -39.658530 75.838264
-8.535167 -39.525121 75.831934
-6.012837 -41.054941 75.484517
-7.692419 -40.193097 75.498557
-9.700720 -40.362136 75.484386
-11.709021 -40.531175 75.470216
-13.388602 -39.669330 75.484256
-15.396903 -39.838369 75.470086
-17.111333 -39.085813 75.481135
-19.084785 -39.145564 75.469955
-20.764366 -38.283720 75.483996
-22.660581 -38.101249 75.479444
-24.452249 -37.590914 75.483865
-26.205119 -36.958910 75.491616
-27.977389 -36.387741 75.497701
-29.517218 -35.087627 75.523735
-31.170573 -34.143537 75.540025
-32.719135 -33.768397 75.542144
-33.921598 -32.294104 75.574320
-35.461427 -30.993990 75.600354
-37.233696 -30.422821 75.606439
-38.155540 -28.803649 75.643725
-39.751924 -27.843327 75.660713
-40.368308 -26.364794 75.695861
-41.499302 -24.853604 75.729338
-42.445331 -23.246917 75.766183
-42.799643 -21.334735 75.813802
-43.930637 -19.823545 75.847280
-44.099983 -17.815867 75.898267
-44.269330 -15.808189 75.949254
-44.438676 -13.800511 76.000241
-44.608022 -11.792833 76.051228
-44.777368 -9.785155 76.102215
-44.946715 -7.777478 76.153202
-44.084805 -6.098544 76.200741
-43.485506 -4.335896 76.249158
-42.914376 -2.564267 76.297669
-41.614039 -1.025096 76.343742
-41.042909 0.746533 76.392253
-39.742572 2.285704 76.438327
-38.442234 3.824875 76.484400
-36.790629 4.684232 76.514644
-35.490292 6.223404 76.560717
-34.177461 7.738396 76.606227
-32.538349 8.621932 76.637034
-30.886744 9.481290 76.667278
-29.586406 11.020461 76.713351
-27.934801 11.879818 76.743595
-26.123027 12.429199 76.766622
-24.611494 13.559639 76.803178
-22.603193 13.728678 76.817348
-20.977112 14.637434 76.848742
-19.083358 15.028158 76.868074
-17.571825 16.158599 76.904630
-15.563524 16.327638 76.918801
-13.555223 16.496677 76.932971
-11.546922 16.665716 76.947141
-9.538621 16.834755 76.961311
-8.010804 17.933681 76.997134
-6.018787 18.134234 77.012038
-4.339205 17.272390 76.997998
-2.330904 17.441429 77.012168
-0.322603 17.610468 77.026338
1.685698 17.779507 77.040509
3.365279 16.917663 77.026468
5.373580 17.086702 77.040639
7.324042 17.074354 77.049845
9.061462 16.393896 77.040769
10.868580 15.932015 77.037674
12.640850 15.360846 77.031588
14.428926 14.839247 77.026859
16.185388 14.218507 77.019417
17.957657 13.647337 77.013331
19.729927 13.076168 77.007246
21.269756 11.776054 76.981212
22.826831 10.530025 76.956659
24.581854 9.904770 76.949093
26.121683 8.604656 76.923060
27.661513 7.304542 76.897027
29.216436 6.051765 76.872289
30.973611 5.433259 76.864908
31.833452 3.782075 76.826493
32.693294 2.130892 76.788079
33.631941 0.520395 76.751099
34.412977 -1.171475 76.711250
34.932281 -2.998474 76.666635
36.063275 -4.509664 76.633157
36.232622 -6.517342 76.582170
36.401968 -8.525020 76.531183
36.571314 -10.532698 76.480196
36.621182 -12.502288 76.429609
35.878751 -14.219309 76.381670
35.478923 -16.045545 76.332586
35.186188 -17.905921 76.283144
35.065872 -19.821260 76.233126
34.493625 -21.592532 76.184618
33.194405 -23.132059 76.138541
31.894067 -24.671230 76.092468
30.242462 -25.530588 76.062224
29.529623 -27.027964 76.020099
28.019727 -28.161574 75.983469
27.161217 -29.841591 75.935919
25.578731 -30.370156 75.914549
24.067198 -31.500596 75.877993
22.493782 -32.511275 75.844226
21.627839 -33.712347 75.809000
19.619538 -33.881386 75.794829
18.268174 -35.321804 75.751056
16.596472 -36.142268 75.721717
14.613696 -36.360705 75.706397
13.076637 -37.441748 75.670991
11.310485 -38.079420 75.645909
9.556803 -38.741227 75.620265
7.548502 -38.910266 75.606094
5.540201 -39.079305 75.591924
3.650260 -39.477409 75.572420
2.020367 -40.378785 75.541198
0.012066 -40.547824 75.527027
-1.996235 -40.716863 75.512857
-4.004536 -40.885902 75.498687
