ply
format ascii 1.0
element vertex 1071
property float x
property float y
property float z
end_header
30.641287 -66.587661 26.736712
29.045684 -65.605135 26.865196
27.045481 -65.626525 26.988668
25.045279 -65.647915 27.112139
23.045077 -65.669305 27.235610
21.218364 -65.260223 27.361231
19.449271 -64.708170 27.487566
17.449069 -64.729560 27.611037
15.507391 -64.605736 27.735233
13.853263 -63.768425 27.862993
12.081535 -63.222910 27.989295
10.654702 -61.821621 28.119871
8.661854 -61.824763 28.243434
6.942752 -61.148671 28.370388
5.066049 -60.863628 28.495389
3.470446 -59.881102 28.623874
1.803969 -59.074432 28.751481
0.091041 -58.383019 28.878512
-1.621887 -57.691606 29.005543
-3.048719 -56.290317 29.136119
-4.761647 -55.598904 29.263150
-6.474575 -54.907491 29.390181
-8.103376 -54.007338 29.518254
-9.401147 -53.311436 29.619659
-10.624119 -51.823084 29.740198
-12.305545 -51.053508 29.867619
-13.763879 -49.730382 29.997805
-15.476807 -49.038969 30.124836
-16.903640 -47.637681 30.255412
-18.330473 -46.236392 30.385988
-20.043401 -45.544979 30.513019
-21.470233 -44.143690 30.643595
-23.070168 -43.171912 30.772027
-24.609994 -42.050988 30.901203
-25.484949 -40.414009 31.004606
-26.760515 -38.948119 31.127734
-28.463342 -38.231641 31.254890
-29.900276 -36.855417 31.385341
-31.327109 -35.454128 31.515917
-32.528788 -33.956683 31.635407
-33.477630 -32.351258 31.742449
-34.904463 -30.949970 31.873025
-36.331296 -29.548681 32.003601
-37.571348 -28.067623 32.124980
-38.481817 -26.445811 32.230132
-39.595429 -24.910755 32.345286
-39.929193 -23.042649 32.422043
-41.356026 -21.641360 32.552619
-42.782859 -20.240071 32.683195
-44.209692 -18.838783 32.813771
-44.655632 -17.018584 32.896051
-45.657069 -15.435621 33.005682
-46.679713 -13.861715 33.116357
-47.104445 -12.032458 33.197592
-48.531278 -10.631170 33.328168
-48.721439 -8.701735 33.397854
-49.978655 -7.228008 33.520079
-50.745520 -5.544866 33.618160
-51.426031 -3.824845 33.711989
-51.775205 -1.963320 33.789504
-52.787245 -0.384886 33.899657
-52.893951 1.580190 33.965234
-53.816930 3.196660 34.071001
-54.341328 4.983352 34.157144
-55.065016 6.684933 34.253099
-55.858655 8.356640 34.352499
-55.876299 10.359752 34.413690
-56.532936 12.089969 34.506344
-56.905984 13.941298 34.585034
-56.923628 15.944410 34.646226
-56.941272 17.947522 34.707417
-56.958916 19.950633 34.768609
-57.970957 21.529068 34.878762
-57.988601 23.532179 34.939953
-58.006245 25.535291 35.001145
-58.023889 27.538403 35.062336
-58.041533 29.541514 35.123527
-58.059177 31.544626 35.184719
-58.076821 33.547738 35.245910
-58.094465 35.550850 35.307102
-58.112109 37.553961 35.368293
-58.129753 39.557073 35.429485
-57.338378 41.234433 35.430703
-57.163351 43.159965 35.477612
-56.179305 44.759746 35.464548
-56.196949 46.762858 35.525739
-55.980667 48.671779 35.569590
-55.230547 50.365750 35.573867
-54.246501 51.965530 35.560803
-53.262455 53.565311 35.547738
-53.206352 55.538728 35.603463
-52.296053 57.168203 35.595866
-51.312007 58.767983 35.582802
-50.417314 60.403742 35.576361
-49.723735 62.120479 35.584829
-48.359869 63.567325 35.543609
-47.628276 65.268756 35.549259
-45.927850 65.996671 35.465586
-44.525970 67.428210 35.421548
-43.832391 69.144947 35.430016
-42.430510 70.576486 35.385978
-41.028630 72.008026 35.341940
-39.626749 73.439565 35.297901
-37.926323 74.167480 35.214228
-36.524443 75.599019 35.170190
-34.539571 75.656542 35.048754
-33.123591 77.054850 35.002844
-31.383580 77.689470 34.913915
-29.722739 78.510681 34.835498
-28.227589 79.722399 34.779077
-26.321888 79.966512 34.668152
-24.649392 80.760253 34.588187
-22.649189 80.781643 34.464715
-21.071194 81.798108 34.397296
-19.070991 81.819498 34.273825
-17.492996 82.835962 34.206406
-15.492793 82.857352 34.082935
-13.492591 82.878742 33.959464
-11.492389 82.900133 33.835992
-9.823873 83.703256 33.756556
-7.914191 83.937987 33.645102
-5.913988 83.959377 33.521631
-3.913786 83.980767 33.398160
-2.318183 82.998242 33.269675
-0.317980 83.019632 33.146204
1.682222 83.041022 33.022733
3.682425 83.062412 32.899262
5.306248 82.149908 32.771127
7.278230 82.101277 32.647306
9.018198 81.476958 32.520610
10.731126 80.785545 32.393579
12.469639 80.157615 32.266865
14.469841 80.179006 32.143394
16.156004 79.421182 32.016031
18.065647 79.217870 31.891438
19.867954 78.748232 31.765515
21.580882 78.056819 31.638484
23.257056 77.274209 31.510997
24.852659 76.291683 31.382512
26.448262 75.309157 31.254028
28.146498 74.581291 31.126815
29.859426 73.889878 30.999784
31.286259 72.488589 30.869207
32.999187 71.797176 30.742176
34.426278 70.396529 30.611604
36.138947 69.704474 30.484569
37.851875 69.013062 30.357538
39.278708 67.611773 30.226962
40.808691 66.466426 30.097664
42.418469 65.519071 29.969355
43.999897 64.501374 29.840695
45.558229 63.426369 29.711748
46.478668 61.808814 29.606105
47.797467 60.543629 29.486316
49.486831 60.247605 29.372609
50.431461 58.640381 29.265776
51.858294 57.239093 29.135200
53.285127 55.837804 29.004623
54.998055 55.146391 28.877592
56.424888 53.745102 28.747016
57.148576 52.043521 28.651061
58.575409 50.642232 28.520485
60.002242 49.240944 28.389909
61.429075 47.839655 28.259333
62.152763 46.138074 28.163377
63.579596 44.736785 28.032801
65.006429 43.335496 27.902225
65.621392 41.587482 27.811623
66.453805 39.932334 27.710315
67.880638 38.531045 27.579738
68.657514 36.852179 27.481164
69.669555 35.273745 27.371012
70.681596 33.695311 27.260859
71.478536 32.025013 27.161297
72.705677 30.538442 27.040553
72.925912 28.621851 26.969386
74.352745 27.220563 26.838810
74.747402 25.378462 26.759056
75.759443 23.800028 26.648903
76.523810 22.115819 26.550945
77.247498 20.414238 26.454989
77.971186 18.712657 26.359034
78.813209 17.061613 26.257252
78.830853 15.058501 26.196061
79.439107 13.307622 26.105790
80.854934 11.901633 25.975755
80.872578 9.898521 25.914564
81.610171 8.202879 25.817924
81.902263 6.316975 25.743219
81.919907 4.313863 25.682028
82.374947 2.497551 25.599300
82.949592 0.732317 25.510684
83.119179 -1.205904 25.442011
83.979276 -2.849229 25.339339
83.996920 -4.852340 25.278148
84.014564 -6.855452 25.216956
84.032208 -8.858564 25.155765
84.049852 -10.861676 25.094573
84.067496 -12.864787 25.033382
84.085140 -14.867899 24.972190
84.102784 -16.871011 24.910999
84.120428 -18.874122 24.849808
84.138072 -20.877234 24.788616
83.154026 -22.477015 24.801680
83.171670 -24.480126 24.740489
82.876759 -26.357388 24.702467
82.183180 -28.074125 24.693999
81.221222 -29.682799 24.705426
80.796023 -31.507600 24.677062
80.254820 -33.285691 24.657298
80.117167 -35.226273 24.607619
79.288418 -36.888583 24.609171
78.304372 -38.488364 24.622235
77.328129 -40.091286 24.634721
76.634551 -41.808024 24.626253
75.352234 -43.287705 24.661428
74.539091 -44.956300 24.661823
73.384142 -46.487266 24.687556
72.443632 -48.104576 24.697393
71.041752 -49.536115 24.741431
70.348173 -51.252853 24.732963
68.946293 -52.684392 24.777001
67.245867 -53.412307 24.860674
65.843986 -54.843846 24.904713
64.442106 -56.275385 24.948751
63.040225 -57.706924 24.992789
61.267073 -58.263435 25.086117
59.639373 -59.162755 25.160135
58.111082 -60.296363 25.220956
56.238522 -60.618586 25.327481
54.836641 -62.050125 25.371520
52.954888 -62.350682 25.479266
50.954686 -62.372072 25.602737
49.376690 -63.388536 25.670156
47.736392 -64.258163 25.745847
45.798493 -64.426391 25.861046
43.798290 -64.447781 25.984518
42.220295 -65.464245 26.051937
40.220092 -65.485636 26.175408
38.219890 -65.507026 26.298879
36.219687 -65.528416 26.422350
34.219485 -65.549806 26.545821
32.640258 -66.563369 26.613404
14.886031 -28.080477 72.606860
13.273194 -27.123163 72.798587
11.271837 -27.176028 73.003166
9.441696 -26.783720 73.202082
7.657643 -26.271579 73.399473
5.656287 -26.324443 73.604052
3.997361 -25.486963 73.797303
2.274157 -24.816609 73.992681
0.429255 -24.462680 74.192085
-1.183583 -23.505366 74.383812
-2.895454 -22.805547 74.578815
-4.618658 -22.135193 74.774193
-6.341862 -21.464840 74.969571
-8.023452 -20.686289 75.163572
-9.513545 -19.409828 75.351238
-10.962024 -18.025170 75.537528
-12.473447 -16.804168 75.725900
-14.133708 -15.970158 75.919196
-15.582187 -14.585500 76.105485
-17.030667 -13.200842 76.291775
-17.782803 -11.504922 76.414752
-19.231283 -10.120264 76.601042
-19.983419 -8.424343 76.724019
-20.735555 -6.728423 76.846996
-21.487692 -5.032503 76.969973
-22.508959 -3.456883 77.117419
-22.556062 -1.445816 77.176294
-23.587943 0.125060 77.324705
-23.635046 2.136126 77.383580
-23.682149 4.147193 77.442454
-23.729252 6.158260 77.501328
-23.581677 8.094172 77.538145
-22.819290 9.792739 77.505303
-22.866393 11.803806 77.564177
-21.909329 13.427219 77.509278
-21.604483 15.302417 77.528276
-20.222617 16.761837 77.425247
-19.550805 18.495370 77.402667
-18.878993 20.228903 77.380088
-17.497127 21.688323 77.277058
-16.115262 23.147743 77.174029
-14.733396 24.607163 77.071000
-13.043705 25.367667 76.917511
-11.661840 26.827087 76.814481
-10.279974 28.286507 76.711452
-8.698053 29.291701 76.575629
-7.132026 30.332983 76.442411
-5.518728 31.266934 76.301444
-3.829037 32.027437 76.147955
-2.139347 32.787941 75.994465
-0.432590 33.509693 75.838178
1.240034 34.308948 75.687486
2.929724 35.069451 75.533997
4.700820 35.645121 75.367163
6.702177 35.697986 75.162583
8.306619 36.652045 75.023068
10.269560 36.792133 74.824786
12.270916 36.844997 74.620207
13.836943 37.886279 74.486989
15.838299 37.939144 74.282410
17.839656 37.992009 74.077830
19.841012 38.044873 73.873251
21.842368 38.097738 73.668671
23.843725 38.150603 73.464092
25.845081 38.203467 73.259513
27.685508 37.837902 73.060257
29.459275 37.299018 72.863206
31.460632 37.351883 72.658627
33.404567 37.255449 72.455947
35.074826 36.447433 72.262321
36.850975 35.914742 72.065191
38.689020 35.542984 71.866014
40.572106 35.288338 71.665348
42.303214 34.638535 71.469708
44.018514 33.947630 71.274592
45.741717 33.277277 71.079214
47.190197 31.892619 70.892924
48.913401 31.222265 70.697546
50.636604 30.551911 70.502168
52.085084 29.167253 70.315879
53.808288 28.496899 70.120501
54.560424 26.800979 69.997524
56.236205 26.007321 69.803715
57.732107 24.745967 69.615856
59.180587 23.361309 69.429567
60.484252 21.911920 69.256444
61.381203 20.280731 69.120300
62.133339 18.584811 68.997323
63.579895 17.199293 68.811208
63.637612 15.192970 68.751369
64.658879 13.617350 68.603922
64.705982 11.606283 68.545048
65.737863 10.035408 68.396636
65.784966 8.024341 68.337762
65.832069 6.013274 68.278888
65.879172 4.002207 68.220014
65.731597 2.066295 68.183197
64.969211 0.367728 68.216039
65.016314 -1.643339 68.157165
64.059249 -3.266752 68.212064
63.102184 -4.890164 68.266962
62.372537 -6.601370 68.296095
61.700725 -8.334903 68.318674
60.318859 -9.794323 68.421704
59.647047 -11.527856 68.444283
58.265182 -12.987276 68.547312
56.676751 -13.977689 68.684203
55.384854 -15.281022 68.782165
54.521814 -16.940733 68.826411
52.832123 -17.701236 68.979900
51.430522 -19.115846 69.086164
49.760567 -19.921159 69.236419
48.070877 -20.681663 69.389908
46.689011 -22.141083 69.492937
44.999321 -22.901586 69.646427
43.165058 -23.333838 69.823615
41.599032 -24.375120 69.956833
39.597675 -24.427985 70.161412
37.932735 -25.244684 70.310845
36.030292 -25.522131 70.499210
34.464265 -26.563413 70.632428
32.462909 -26.616278 70.837007
30.461553 -26.669143 71.041586
28.868635 -27.649368 71.179212
26.894170 -27.763289 71.379384
24.892813 -27.816154 71.583963
22.891457 -27.869018 71.788542
20.890100 -27.921883 71.993122
18.888744 -27.974748 72.197701
16.887388 -28.027613 72.402281
107.734186 75.127703 79.290513
106.094444 76.070569 79.510744
104.070719 76.001639 79.711080
102.234379 76.426470 79.921125
100.407251 76.875575 80.131647
98.748852 77.769280 80.350911
97.006089 78.440685 80.565805
95.488026 79.704175 80.792341
93.792080 80.498944 81.009660
92.208543 81.589909 81.232803
90.578072 82.557203 81.453515
89.106826 83.944057 81.682477
88.330649 85.647104 81.859592
87.482087 87.317221 82.042106
86.083227 88.737004 82.265669
85.402275 90.483369 82.435681
85.345345 92.513607 82.559146
84.449765 94.162336 82.745167
84.248509 96.126919 82.879398
84.804806 97.925915 82.927538
85.484082 99.678536 82.960573
86.163358 101.431157 82.993608
87.554093 102.915493 82.939252
88.944827 104.399829 82.884896
90.646646 105.188561 82.758798
92.530562 105.570115 82.590705
94.361370 106.070420 82.434860
96.138073 106.691709 82.291492
98.161798 106.760639 82.091157
100.101276 106.607576 81.886456
101.825265 105.886703 81.670590
103.848991 105.955633 81.470254
105.488733 105.012767 81.250023
107.343846 104.637404 81.040950
108.815091 103.250550 80.811989
110.791942 103.195964 80.609224
111.605549 101.591547 80.434049
113.348312 100.920142 80.219155
114.819558 99.533288 79.990193
116.562321 98.861883 79.775300
118.033567 97.475029 79.546338
118.809744 95.771983 79.369223
120.137705 94.319947 79.150949
120.362097 92.365890 79.014993
121.234541 90.706635 78.830697
121.914451 88.959797 78.660763
122.331376 87.093323 78.510445
122.388306 85.063086 78.386980
121.439083 83.412259 78.387104
120.637283 81.705841 78.369119
119.958007 79.953220 78.336085
118.567272 78.468884 78.390440
116.972932 77.439822 78.491752
115.389147 76.387158 78.590629
113.365422 76.318227 78.790964
111.759995 75.313957 78.894832
109.757911 75.196633 79.090177
15.880510 -21.880454 82.940129
14.270244 -20.936583 83.157443
12.275994 -21.004510 83.354861
10.444989 -20.642286 83.560737
8.671479 -20.128565 83.769592
7.002321 -19.339875 83.983854
5.066963 -19.252621 84.184323
3.456698 -18.308750 84.401636
1.838318 -17.386259 84.618529
0.116984 -16.735054 84.830088
-1.374100 -15.477138 85.053576
-3.054167 -14.717194 85.267273
-4.503984 -13.350540 85.492900
-5.953800 -11.983886 85.718527
-7.333059 -10.585135 85.938891
-8.158365 -8.934385 86.117934
-9.394823 -8.062606 86.293325
-10.433900 -6.509103 86.488313
-11.389195 -4.917487 86.677053
-11.529077 -2.954932 86.804969
-12.203622 -1.235601 86.972767
-12.624254 0.599238 87.121625
-12.680355 2.599905 87.243291
-12.736456 4.600573 87.364958
-12.439575 6.468133 87.443267
-11.842504 8.222495 87.484703
-11.121535 9.930136 87.510919
-10.462515 11.661137 87.544746
-9.803495 13.392138 87.578572
-8.433017 14.854855 87.525008
-7.632154 16.268688 87.526123
-6.092434 17.352968 87.433528
-4.721955 18.815685 87.379964
-3.351477 20.278401 87.326400
-1.669914 21.045513 87.201094
-0.299436 22.508230 87.147529
1.382127 23.275342 87.022223
3.063690 24.042454 86.896917
4.802318 24.681967 86.758450
6.426816 25.576678 86.646304
8.350876 25.801553 86.465074
9.905185 26.853213 86.369114
11.899435 26.921139 86.171697
13.775238 27.253917 86.001595
15.447993 28.040726 85.878320
17.442243 28.108652 85.680902
19.436492 28.176578 85.483484
21.430742 28.244505 85.286066
23.424991 28.312431 85.088649
25.419241 28.380358 84.891231
27.141274 27.730994 84.679708
29.023756 27.504414 84.476500
31.018006 27.572340 84.279082
32.628272 26.628469 84.061768
34.569646 26.557070 83.861611
36.232787 25.752525 83.647037
38.012315 25.254659 83.438494
39.733649 24.603453 83.226935
41.447568 23.932710 83.014993
42.904800 22.585594 82.789750
44.626134 21.934389 82.578191
46.075951 20.567734 82.352565
47.525767 19.201080 82.126938
49.114913 18.201560 81.908530
50.001849 16.867028 81.741599
51.451666 15.500374 81.515972
52.206414 13.817528 81.342192
52.961162 12.134681 81.168412
53.797902 10.489133 80.988516
54.470658 8.768988 80.820851
54.893079 6.934963 80.671860
54.949180 4.934296 80.550193
55.005281 2.933628 80.428527
54.710231 1.065377 80.349993
54.111329 -0.688294 80.308782
54.103649 -2.664910 80.194950
53.217377 -4.310217 80.189037
52.267324 -5.931472 80.190959
51.104046 -6.894025 80.252603
50.350829 -8.589505 80.230348
49.074548 -10.087743 80.272341
47.704070 -11.550459 80.325905
46.333592 -13.013176 80.379469
44.708919 -13.907497 80.491656
43.281551 -15.243004 80.558340
41.600301 -16.010817 80.683574
40.045992 -17.062476 80.779533
38.491683 -18.114136 80.875492
36.555298 -18.311453 81.059565
34.943124 -19.233722 81.168869
33.192172 -19.845677 81.310178
31.394566 -20.353309 81.462246
29.400316 -20.421235 81.659663
27.836398 -21.451408 81.757839
25.851757 -21.540821 81.953040
23.857508 -21.608748 82.150458
21.863258 -21.676674 82.347876
19.869009 -21.744601 82.545294
17.874759 -21.812527 82.742712
-74.173397 -176.009201 126.009412
-75.767479 -175.066887 126.315397
-77.746491 -175.136174 126.613306
-79.725503 -175.205460 126.911214
-81.542341 -174.848552 127.212525
-83.298598 -174.332433 127.515107
-85.277610 -174.401720 127.813015
-86.932957 -173.620410 128.117715
-88.850704 -173.528693 128.416909
-90.444787 -172.586379 128.722894
-92.423799 -172.655666 129.020802
-94.029715 -171.744451 129.326539
-95.996893 -171.782639 129.624695
-97.590975 -170.840325 129.930680
-99.185058 -169.898011 130.236665
-100.854286 -169.153182 130.541073
-102.560429 -168.505365 130.844707
-104.266572 -167.857548 131.148341
-105.946316 -167.140356 131.452528
-107.540398 -166.198042 131.758513
-109.134481 -165.255728 132.064498
-110.818956 -164.550969 132.368586
-112.525099 -163.903152 132.672220
-113.959055 -162.540025 132.981565
-115.665198 -161.892208 133.285198
-117.099154 -160.529081 133.594543
-118.698974 -159.601844 133.900407
-120.239253 -158.518137 134.207521
-121.673209 -157.155010 134.516866
-123.107165 -155.791883 134.826211
-124.541122 -154.428756 135.135555
-125.975078 -153.065628 135.444900
-127.409034 -151.702501 135.754245
-128.842990 -150.339374 136.063589
-130.276946 -148.976247 136.372934
-131.710902 -147.613120 136.682279
-133.144858 -146.249993 136.991623
-133.887158 -144.570307 137.216188
-135.321114 -143.207180 137.525532
-136.339833 -141.654006 137.783979
-137.497370 -140.164366 138.059441
-138.393950 -138.555292 138.302917
-139.421008 -137.005934 138.562385
-140.415925 -135.441867 138.817914
-141.158224 -133.762180 139.042479
-141.900524 -132.082494 139.267043
-142.642823 -130.402808 139.491607
-143.578148 -128.811466 139.739832
-144.605206 -127.262108 139.999301
-145.561378 -125.680308 140.250080
-146.303678 -124.000621 140.474645
-146.708231 -122.166354 140.657809
-147.735289 -120.616997 140.917278
-147.784197 -118.619957 141.056849
-148.581219 -116.965317 141.288121
-148.860163 -115.073560 141.455889
-149.887221 -113.524203 141.715358
-149.936129 -111.527163 141.854929
-150.167103 -109.613453 142.016817
-151.012095 -107.980767 142.253969
-151.061003 -105.983727 142.393540
-151.109911 -103.986687 142.533111
-151.752988 -102.261589 142.745513
-152.185877 -100.440290 142.932151
-152.234784 -98.443250 143.071723
-152.283692 -96.446211 143.211294
-152.332600 -94.449171 143.350865
-152.381508 -92.452131 143.490436
-152.430416 -90.455092 143.630007
-152.479324 -88.458052 143.769578
-152.528232 -86.461012 143.909149
-151.578757 -84.842455 143.871083
-151.627665 -82.845415 144.010654
-151.676573 -80.848375 144.150225
-151.682610 -78.867588 144.282169
-150.776005 -77.232778 144.251730
-150.824913 -75.235739 144.391301
-150.412095 -73.413737 144.448720
-149.924346 -71.620142 144.492806
-149.094442 -69.956255 144.476015
-149.023778 -68.004544 144.594311
-148.482752 -66.231146 144.628918
-147.823926 -64.502405 144.642565
-147.173736 -62.770390 144.657749
-146.506273 -61.044923 144.669860
-145.847447 -59.316182 144.683508
-145.323693 -57.536235 144.721188
-144.529794 -55.858700 144.710802
-143.870968 -54.129959 144.724450
-143.473651 -52.302081 144.784626
-143.522559 -50.305041 144.924198
-143.571467 -48.308002 145.063769
-144.573446 -46.747166 145.320163
-145.315745 -45.067480 145.544728
-146.058044 -43.387793 145.769292
-146.701549 -41.662890 145.981746
-147.542643 -40.028421 146.218420
-147.777515 -38.116493 146.380786
-148.335586 -36.352489 146.582768
-148.853481 -34.570096 146.779826
-149.820185 -32.993116 147.031897
-149.929447 -31.023699 147.178866
-150.613127 -29.317184 147.396245
-151.005413 -27.477302 147.577906
-151.054321 -25.480263 147.717477
-151.456712 -23.645006 147.900377
-152.130287 -21.933866 148.116517
-152.179195 -19.936826 148.256088
-152.228103 -17.939786 148.395659
-153.042597 -16.293142 148.629073
-153.304069 -14.393389 148.794699
-153.352977 -12.396350 148.934271
-153.401885 -10.399310 149.073842
-153.450793 -8.402270 149.213413
-153.499700 -6.405231 149.352984
-153.548608 -4.408191 149.492555
-153.597516 -2.411151 149.632126
-153.646424 -0.414111 149.771697
-152.696949 1.204446 149.733631
-152.745857 3.201486 149.873202
-152.794765 5.198525 150.012773
-152.625840 7.112986 150.113587
-151.894197 8.814122 150.114278
-151.943105 10.811162 150.253849
-151.992013 12.808202 150.393420
-151.042538 14.426759 150.355354
-151.091446 16.423799 150.494925
-150.141971 18.042356 150.456859
-150.131946 20.017055 150.585945
-149.241403 21.657953 150.558364
-148.814293 23.474537 150.613239
-148.340836 25.273551 150.659869
-147.496641 26.932019 150.640534
-147.440269 28.889148 150.761373
-146.490793 30.507705 150.723307
-145.541318 32.126262 150.685241
-145.567298 34.114610 150.820732
-144.640751 35.741860 150.786745
-143.691276 37.360417 150.748679
-142.884856 39.033206 150.736066
-142.226029 40.761947 150.749713
-140.861240 42.223061 150.637752
-140.202413 43.951802 150.651399
-139.543587 45.680543 150.665047
-138.178797 47.141656 150.553086
-137.519970 48.870397 150.566733
-136.155181 50.331511 150.454772
-135.496354 52.060252 150.468419
-134.196523 53.545991 150.368016
-133.472738 55.250106 150.370105
-132.107948 56.711220 150.258144
-131.348097 58.401663 150.253817
-130.084332 59.901074 150.159830
-128.719542 61.362188 150.047869
-127.354752 62.823302 149.935908
-125.989962 64.284415 149.823946
-125.213304 65.746150 149.801922
-123.659619 66.779228 149.632775
-122.294829 68.240342 149.520814
-120.930039 69.701455 149.408853
-119.565250 71.162569 149.296892
-118.200460 72.623682 149.184930
-116.835670 74.084796 149.072969
-115.470880 75.545910 148.961008
-114.106090 77.007023 148.849046
-112.741300 78.468137 148.737085
-111.376510 79.929250 148.625124
-109.950821 81.252365 148.494726
-108.340204 82.156436 148.308344
-106.975414 83.617549 148.196383
-105.610624 85.078663 148.084422
-103.939108 85.844735 147.879603
-102.574318 87.305849 147.767642
-100.902801 88.071921 147.562824
-99.231285 88.837993 147.358005
-97.866495 90.299106 147.246044
-96.194979 91.065178 147.041226
-94.830189 92.526292 146.929265
-93.158672 93.292364 146.724446
-91.487156 94.058436 146.519628
-90.122366 95.519549 146.407667
-88.450850 96.285621 146.202848
-86.779333 97.051693 145.998030
-85.414543 98.512807 145.886069
-83.743027 99.278879 145.681250
-82.136582 100.192401 145.496131
-80.591346 101.244625 145.329543
-79.035204 102.272136 145.159652
-77.363688 103.038208 144.954834
-75.692172 103.804280 144.750016
-74.020655 104.570352 144.545197
-72.431392 105.522809 144.365280
-70.677622 106.102496 144.135561
-68.907144 106.644320 143.900783
-67.334590 107.634640 143.725924
-65.663073 108.400712 143.521106
-63.837661 108.818056 143.269698
-62.292425 109.870280 143.103109
-60.648524 110.698928 142.906651
-58.768177 110.991791 142.638612
-57.222942 112.044015 142.472024
-55.327248 112.302102 142.199339
-53.698694 113.165526 142.007527
-51.984215 113.834246 141.789702
-50.174446 114.287038 141.543030
-48.334456 114.671348 141.287208
-46.650199 115.408549 141.078533
-44.991423 116.203492 140.877572
-43.125951 116.530060 140.614036
-41.146939 116.599347 140.316128
-39.601703 117.651571 140.149539
-37.622691 117.720858 139.851631
-36.020388 118.643769 139.667766
-34.098443 118.842369 139.387134
-32.370629 119.480871 139.165272
-30.574195 119.963880 138.922637
-28.595183 120.033167 138.624729
-26.742627 120.389004 138.365103
-25.070935 121.154678 138.160232
-23.091923 121.223965 137.862324
-21.114625 121.297136 137.564934
-19.567675 122.345477 137.397827
-17.588663 122.414764 137.099918
-15.609650 122.484050 136.802010
-13.815106 122.971341 136.559947
-12.085403 123.605562 136.337513
-10.106390 123.674849 136.039605
-8.127378 123.744135 135.741696
-6.148366 123.813422 135.443788
-4.230618 124.021534 135.164427
-2.624118 124.934934 134.979291
-0.645106 125.004221 134.681383
1.333907 125.073507 134.383475
3.312919 125.142794 134.085566
5.291931 125.212081 133.787658
7.270943 125.281368 133.489750
9.249956 125.350655 133.191841
11.228968 125.419942 132.893933
13.207980 125.489229 132.596025
15.186993 125.558516 132.298117
17.166005 125.627803 132.000208
19.145017 125.697090 131.702300
21.124029 125.766377 131.404392
23.103042 125.835664 131.106483
25.082054 125.904951 130.808575
26.836334 125.383638 130.505951
28.655148 125.031924 130.204682
30.634161 125.101211 129.906774
32.613173 125.170498 129.608865
34.592185 125.239784 129.310957
36.455795 125.005791 129.010627
38.165280 124.366757 128.707064
40.144292 124.436044 128.409155
42.123304 124.505331 128.111247
44.096926 124.560452 127.813226
45.696399 123.632304 127.507354
47.675411 123.701591 127.209446
49.654423 123.770878 126.911537
51.248505 122.828564 126.605552
53.227518 122.897851 126.307644
55.150343 122.819479 126.008557
56.800612 122.024824 125.703751
58.779624 122.094111 125.405843
60.373707 121.151797 125.099858
62.352719 121.221084 124.801949
64.225431 121.011013 124.501811
65.925813 120.348057 124.198056
67.904826 120.417344 123.900148
69.498908 119.475030 123.594163
71.322189 119.135054 123.292987
73.072002 118.602003 122.990270
74.734475 117.839419 122.685720
76.645097 117.728976 122.386376
78.239179 116.786662 122.080391
80.218191 116.855949 121.782483
81.831233 115.963461 121.476896
83.791286 115.982922 121.178590
85.385368 115.040608 120.872605
86.979450 114.098294 120.566620
88.927991 114.087502 120.268072
90.552544 113.225267 119.962727
92.146626 112.282953 119.656742
94.046419 112.144050 119.357171
95.719721 111.409926 119.052849
97.313803 110.467612 118.746864
98.907885 109.525298 118.440879
100.598804 108.837472 118.136926
102.304947 108.189654 117.833292
104.075062 107.709957 117.531001
105.717233 106.894020 117.226025
107.423375 106.246203 116.922391
109.129518 105.598386 116.618758
110.835661 104.950569 116.315124
112.430403 104.009988 116.009153
113.975760 102.939624 115.702146
115.618567 102.125360 115.397183
117.212649 101.183046 115.091198
118.822002 100.280863 114.785534
120.255958 98.917736 114.476189
121.962101 98.269919 114.172555
123.396057 96.906792 113.863210
125.102200 96.258974 113.559577
126.777142 95.529162 113.255289
128.242299 94.248030 112.946598
129.948442 93.600213 112.642965
131.382398 92.237086 112.333620
132.816354 90.873959 112.024275
134.362623 89.805991 111.717287
135.956453 88.863015 111.411297
137.390409 87.499888 111.101952
138.824365 86.136761 110.792608
140.258321 84.773634 110.483263
141.692277 83.410506 110.173918
143.126233 82.047379 109.864574
144.560190 80.684252 109.555229
145.994146 79.321125 109.245884
147.428102 77.957998 108.936540
148.862058 76.594871 108.627195
150.357806 75.394133 108.319147
151.310500 74.267368 108.098997
152.744456 72.904241 107.789652
154.178412 71.541114 107.480308
155.612369 70.177986 107.170963
157.046325 68.814859 106.861618
157.788624 67.135173 106.637054
159.222580 65.772046 106.327709
160.297453 64.244573 106.062380
161.398836 62.729233 105.793800
162.351569 61.145858 105.543442
163.575092 59.686419 105.259891
164.405686 58.047144 105.024504
165.751347 56.643606 104.725982
166.493647 54.963919 104.501418
167.486860 53.399072 104.246098
168.669902 51.921106 103.967509
169.540976 50.300358 103.727160
170.568035 48.751000 103.467692
171.588457 47.198606 103.209036
172.330757 45.518920 102.984472
172.671059 43.655246 102.809183
173.698117 42.105889 102.549714
174.557655 40.479861 102.310779
174.774083 38.559492 102.150674
175.801141 37.010135 101.891205
176.092897 35.124242 101.721867
176.877107 33.463738 101.492165
177.577496 31.764870 101.272738
177.953073 29.917341 101.093125
178.980131 28.367984 100.833657
179.029039 26.370944 100.694085
179.855037 24.729565 100.459262
180.105005 22.824547 100.295045
180.153913 20.827507 100.155474
180.698622 19.057387 99.955130
181.229879 17.281110 99.756434
181.278787 15.284071 99.616863
181.327695 13.287031 99.477292
182.284507 11.705523 99.226434
182.403661 9.740634 99.078252
182.452569 7.743594 98.938681
182.501477 5.746555 98.799110
182.550385 3.749515 98.659539
182.599293 1.752475 98.519968
182.648201 -0.244565 98.380396
182.697108 -2.241604 98.240825
182.746016 -4.238644 98.101254
181.796541 -5.857201 98.139320
181.845449 -7.854241 97.999749
181.894357 -9.851281 97.860178
181.580171 -11.710673 97.785211
180.993790 -13.466878 97.758673
181.042698 -15.463918 97.619102
181.015618 -17.432151 97.493051
180.142130 -19.079515 97.517597
180.191038 -21.076554 97.378026
179.241563 -22.695112 97.416093
179.086276 -24.614742 97.312853
178.340996 -26.310709 97.314588
178.389903 -28.307749 97.175017
177.440428 -29.926306 97.213083
177.156934 -31.797334 97.132654
176.498108 -33.526075 97.119007
175.590386 -35.160460 97.149644
174.640910 -36.779018 97.187711
174.521629 -38.712298 97.078065
173.740343 -40.394615 97.086206
172.790868 -42.013172 97.124272
171.839186 -43.630893 97.162731
170.891917 -45.250287 97.200405
169.942442 -46.868844 97.238471
169.156743 -48.549489 97.247398
168.497917 -50.278230 97.233750
167.133127 -51.739343 97.345712
166.474301 -53.468084 97.332064
165.195066 -54.961631 97.428803
164.450684 -56.657939 97.430378
163.296115 -58.198746 97.504936
162.427068 -59.847794 97.528692
161.062278 -61.308907 97.640653
159.697488 -62.770021 97.752614
159.038662 -64.498762 97.738967
157.673872 -65.959875 97.850928
156.309082 -67.420989 97.962890
154.944292 -68.882102 98.074851
153.579502 -70.343216 98.186812
152.214713 -71.804330 98.298773
150.849923 -73.265443 98.410735
149.485133 -74.726557 98.522696
148.120343 -76.187670 98.634657
146.755553 -77.648784 98.746619
145.390763 -79.109897 98.858580
144.025973 -80.571011 98.970541
142.661183 -82.032125 99.082502
141.296393 -83.493238 99.194464
139.931604 -84.954352 99.306425
138.263124 -85.727306 99.510324
136.895297 -87.181537 99.623205
135.530507 -88.642651 99.735166
134.061195 -89.866916 99.878770
132.494201 -90.869836 100.051945
130.970724 -91.971364 100.211947
129.425488 -93.023589 100.378536
127.786378 -93.863094 100.573543
126.335017 -95.128037 100.711713
124.750072 -96.090280 100.890323
123.385282 -97.551393 101.002284
121.713766 -98.317465 101.207103
120.154075 -99.336934 101.378067
118.677459 -100.544651 101.523882
117.063604 -101.441382 101.711244
115.518369 -102.493607 101.877833
113.969637 -103.537908 102.045480
112.298120 -104.303980 102.250298
110.626604 -105.070052 102.455117
108.903650 -105.719566 102.675507
107.283571 -106.602196 102.864753
105.612055 -107.368268 103.069572
103.940538 -108.134340 103.274390
102.288931 -108.945526 103.473181
100.743696 -109.997750 103.639770
99.198460 -111.049974 103.806358
97.254473 -111.198628 104.093663
95.674212 -112.171486 104.270855
94.128977 -113.223710 104.437444
92.239924 -113.496844 104.708118
90.604729 -114.345221 104.901941
89.059494 -115.397445 105.068529
87.225374 -115.795060 105.322573
85.535246 -116.518956 105.533026
83.575615 -116.632162 105.825067
82.010998 -117.640467 105.997523
80.232582 -118.164306 106.234704
78.486750 -118.761979 106.462020
76.889549 -119.696450 106.644340
74.962502 -119.883490 106.926517
73.417267 -120.935714 107.093106
71.438255 -121.005001 107.391014
69.893019 -122.057225 107.557602
67.914007 -122.126512 107.855511
65.940271 -122.207757 108.151822
64.389759 -123.248023 108.320008
62.410747 -123.317310 108.617916
60.865511 -124.369534 108.784505
58.886499 -124.438821 109.082413
56.969236 -124.648033 109.361627
55.362251 -125.560333 109.546910
53.383239 -125.629619 109.844818
51.404227 -125.698906 110.142726
49.858991 -126.751131 110.309315
47.879979 -126.820418 110.607223
45.900967 -126.889704 110.905132
43.921954 -126.958991 111.203040
42.370199 -127.996442 111.371602
40.397706 -128.080503 111.667537
38.418694 -128.149790 111.965445
36.439682 -128.219076 112.263353
34.460670 -128.288363 112.561262
32.785711 -129.046636 112.767122
30.936422 -129.409875 113.025759
28.957409 -129.479161 113.323667
26.978397 -129.548448 113.621575
24.999385 -129.617735 113.919483
23.020373 -129.687022 114.217392
21.041360 -129.756309 114.515300
19.062348 -129.825596 114.813208
17.083336 -129.894883 115.111117
15.104323 -129.964170 115.409025
13.125311 -130.033457 115.706933
11.146299 -130.102744 116.004842
9.167287 -130.172031 116.302750
7.188274 -130.241318 116.600658
5.397037 -130.736102 116.841720
4.738210 -132.464843 116.828073
3.930270 -134.137056 116.840957
2.714594 -135.654698 116.926387
2.031320 -137.374170 116.917089
0.690978 -138.844552 117.024701
-0.673812 -140.305666 117.136662
-1.332638 -142.034407 117.123015
-2.697428 -143.495520 117.234976
-4.062218 -144.956634 117.346937
-5.427008 -146.417748 117.458898
-6.791798 -147.878861 117.570860
-7.561249 -149.565665 117.576895
-9.122141 -150.373674 117.762031
-10.486931 -151.834788 117.873992
-11.851721 -153.295901 117.985953
-13.216510 -154.757015 118.097914
-14.694961 -155.960574 118.244285
-16.252817 -156.984200 118.414694
-17.617607 -158.445314 118.526655
-19.289123 -159.211386 118.731474
-20.653913 -160.672500 118.843435
-22.325429 -161.438571 119.048253
-23.690219 -162.899685 119.160215
-25.511609 -163.326143 119.410405
-27.056845 -164.378367 119.576994
-28.704768 -165.197901 119.774670
-30.147316 -166.482816 119.910171
-32.047801 -166.730045 120.184306
-33.671564 -167.604327 120.374668
-35.216799 -168.656551 120.541256
-37.062350 -169.028261 120.798761
-38.733867 -169.794333 121.003579
-40.286283 -170.830287 121.172342
-42.265295 -170.899573 121.470250
-43.810530 -171.951798 121.636839
-45.726659 -172.163579 121.915710
-47.334778 -173.073309 122.101336
-49.313790 -173.142596 122.399244
-51.047935 -173.766753 122.623022
-52.838038 -174.264107 122.863741
-54.817050 -174.333394 123.161649
-56.796063 -174.402681 123.459557
-58.347453 -175.440958 123.628009
-60.320311 -175.524192 123.924054
-62.299323 -175.593479 124.221963
-64.278335 -175.662766 124.519871
-66.257347 -175.732053 124.817779
-68.236360 -175.801340 125.115688
-70.215372 -175.870627 125.413596
-72.194384 -175.939914 125.711504
