ply
format ascii 1.0
element vertex 1490
property float x
property float y
property float z
end_header
29.245935 -116.851547 43.707683
27.249249 -116.862536 43.874358
25.252563 -116.873525 44.041033
23.255876 -116.884513 44.207709
21.259190 -116.895502 44.374384
19.262504 -116.906491 44.541059
17.265818 -116.917479 44.707735
15.269132 -116.928468 44.874410
13.272446 -116.939456 45.041085
11.275759 -116.950445 45.207760
9.279073 -116.961434 45.374436
7.282387 -116.972422 45.541111
5.285701 -116.983411 45.707786
3.482514 -116.520729 45.869739
1.701641 -116.003422 46.031147
-0.295045 -116.014411 46.197822
-2.291732 -116.025399 46.364497
-4.288418 -116.036388 46.531173
-6.285104 -116.047376 46.697848
-8.200467 -116.253242 46.853011
-8.996507 -117.927521 46.879076
-10.308746 -119.390447 46.953411
-11.010057 -121.103513 46.970617
-12.417026 -122.527652 47.053811
-13.823995 -123.951792 47.137004
-15.230964 -125.375932 47.220197
-16.637933 -126.800072 47.303391
-17.929554 -128.271439 47.375798
-18.746212 -129.937277 47.403791
-20.253943 -131.119959 47.501248
-21.854470 -132.080272 47.611842
-23.261439 -133.504412 47.695035
-24.668408 -134.928552 47.778229
-26.369697 -135.647407 47.903087
-27.776666 -137.071546 47.986280
-29.320443 -138.167852 48.088841
-30.900898 -139.176263 48.196593
-32.586213 -139.933397 48.319190
-34.287502 -140.652252 48.444048
-35.988791 -141.371107 48.568906
-37.638949 -142.212487 48.686526
-39.219404 -143.220898 48.794278
-41.092657 -143.527673 48.943480
-42.793946 -144.246528 49.068338
-44.377001 -145.248710 49.176459
-46.196524 -145.684238 49.318054
-47.954142 -146.268111 49.450887
-49.599102 -147.121949 49.567771
-51.531283 -147.287511 49.725315
-53.527969 -147.298499 49.891990
-55.108424 -148.306911 49.999742
-57.105111 -148.317900 50.166418
-59.101797 -148.328888 50.333093
-60.689794 -149.319226 50.441913
-62.678938 -149.348289 50.607521
-64.675624 -149.359277 50.774196
-66.672310 -149.370266 50.940871
-68.668997 -149.381255 51.107547
-70.665683 -149.392243 51.274222
-72.662369 -149.403232 51.440897
-71.221477 -135.505162 55.703709
-72.816139 -134.536629 55.896853
-74.812275 -134.571700 56.033720
-76.641152 -134.188658 56.194032
-78.403073 -133.638239 56.363730
-80.348897 -133.547541 56.507649
-81.993871 -132.704777 56.693741
-83.772757 -132.196768 56.861060
-85.484686 -131.521381 57.037766
-87.179329 -130.802782 57.216895
-88.773991 -129.834249 57.410038
-90.368652 -128.865715 57.603182
-92.332405 -128.819835 57.744588
-93.760449 -127.434792 57.961087
-95.472378 -126.759406 58.137792
-96.900422 -125.374363 58.354292
-98.328466 -123.989320 58.570791
-99.936619 -123.054515 58.762043
-101.468439 -121.928891 58.963995
-102.896482 -120.543849 59.180495
-104.324526 -119.158806 59.396994
-105.752570 -117.773763 59.613493
-106.478700 -116.084505 59.806410
-107.906743 -114.699463 60.022909
-109.334787 -113.314420 60.239409
-110.410924 -111.776858 60.444085
-111.488960 -110.240119 60.648825
-112.443081 -108.649674 60.849402
-112.941220 -106.861603 61.034660
-113.667349 -105.172344 61.227578
-114.498660 -103.528672 61.424029
-115.514738 -101.965080 61.626688
-116.530817 -100.401488 61.829346
-116.571868 -98.415311 61.999248
-117.570317 -96.844079 62.201314
-117.593739 -94.850261 62.370623
-118.609818 -93.286669 62.573282
-118.633240 -91.292851 62.742591
-118.798689 -89.360589 62.916672
-119.672741 -87.735441 63.114559
-119.696163 -85.741623 63.283868
-119.719585 -83.747806 63.453177
-119.743007 -81.753988 63.622487
-119.766429 -79.760170 63.791796
-119.789852 -77.766352 63.961105
-119.813274 -75.772534 64.130414
-119.271683 -74.001471 64.241416
-118.857766 -72.180073 64.365592
-118.881188 -70.186255 64.534902
-117.922005 -68.579826 64.602809
-117.925680 -66.593793 64.770080
-117.258477 -64.872252 64.868119
-116.970171 -63.001331 65.005258
-115.991241 -61.402688 65.071127
-115.200028 -59.730037 65.156369
-114.513879 -58.015965 65.252452
-114.056803 -56.211582 65.372175
-114.080225 -54.217764 65.541484
-115.034005 -52.627172 65.742050
-115.760135 -50.937913 65.934967
-117.188179 -49.552871 66.151467
-118.144538 -47.963396 66.352119
-119.342352 -46.478570 66.560883
-120.176695 -44.836212 66.757436
-121.496526 -43.404269 66.970300
-122.222655 -41.715011 67.163217
-123.224931 -40.145437 67.365412
-124.241009 -38.581845 67.568071
-125.102958 -36.951452 67.765551
-126.273166 -35.454661 67.973388
-126.555218 -33.572935 68.151386
-127.312666 -31.897251 68.345356
-128.328745 -30.333659 68.548015
-129.344823 -28.770067 68.750673
-129.459737 -26.815902 68.923056
-130.384324 -25.212657 69.122641
-130.911996 -23.437386 69.308891
-131.423824 -21.655248 69.494609
-131.662342 -19.754654 69.671145
-132.463325 -18.097838 69.866577
-133.114601 -16.376137 70.056980
-133.502826 -14.540428 70.238545
-133.526248 -12.546610 70.407854
-134.542326 -10.983018 70.610513
-134.565749 -8.989200 70.779822
-134.589171 -6.995383 70.949131
-134.663724 -5.023725 71.120158
-135.628671 -3.437973 71.321099
-135.652093 -1.444155 71.490408
-135.675516 0.549663 71.659717
-135.698938 2.543481 71.829027
-135.722360 4.537298 71.998336
-135.745782 6.531116 72.167645
-135.769204 8.524934 72.336954
-135.792627 10.518752 72.506263
-135.342019 12.325685 72.626654
-134.837118 14.111214 72.741442
-134.860541 16.105031 72.910751
-134.883963 18.098849 73.080060
-134.014961 19.740832 73.157274
-133.928455 21.691311 73.315238
-133.951877 23.685129 73.484548
-132.972947 25.283773 73.550417
-132.687904 27.155979 73.687893
-132.017438 28.876234 73.785595
-132.024376 30.863553 73.953203
-131.061930 32.468696 74.020773
-130.652077 34.291696 74.145370
-129.965927 36.005768 74.241453
-129.127492 37.659802 74.321821
-128.593629 39.433912 74.433620
-127.907479 41.147983 74.529703
-127.193053 42.850907 74.622868
-126.535180 44.576127 74.721870
-125.235192 46.048195 74.754607
-124.454111 47.724840 74.840893
-123.767962 49.438912 74.936977
-123.081812 51.152984 75.033060
-122.321824 52.837944 75.121523
-121.000743 54.301697 75.152084
-119.605824 55.736339 75.175024
-118.919674 57.450410 75.271107
-118.233525 59.164482 75.367191
-116.838605 60.599124 75.390131
-116.152456 62.313195 75.486214
-114.757536 63.747837 75.509154
-113.488028 65.231922 75.545037
-112.676467 66.896550 75.628178
-111.281547 68.331192 75.651118
-109.886627 69.765833 75.674058
-108.491708 71.200475 75.696998
-107.096788 72.635116 75.719939
-105.701868 74.069758 75.742879
-104.306949 75.504400 75.765819
-102.912029 76.939041 75.788759
-101.517109 78.373683 75.811699
-100.122189 79.808324 75.834640
-98.727270 81.242966 75.857580
-97.163175 82.283786 75.835552
-95.636992 83.412860 75.823602
-94.242072 84.847501 75.846542
-92.847152 86.282143 75.869482
-91.303050 87.369504 75.852769
-89.731798 88.393662 75.828839
-88.061516 89.187288 75.778586
-86.666596 90.621930 75.801526
-85.018042 91.466136 75.757049
-83.576318 92.791823 75.767548
-81.880960 93.527076 75.710630
-80.304285 94.538609 75.685259
-78.790682 95.696969 75.676652
-77.161780 96.586925 75.637399
-75.590528 97.611083 75.613469
-74.005046 98.602115 75.585756
-72.309688 99.337367 75.528838
-70.614329 100.072619 75.471920
-68.918971 100.807871 75.415002
-67.309383 101.742787 75.380882
-65.738131 102.766945 75.356952
-64.133335 103.713017 75.324105
-62.437976 104.448269 75.267187
-60.742618 105.183521 75.210269
-59.047260 105.918773 75.153351
-57.456985 106.898648 75.124365
-55.656543 107.389277 75.039515
-53.961185 108.124529 74.982596
-52.318344 108.982036 74.939638
-50.570468 109.595033 74.868760
-48.875110 110.330285 74.811842
-47.179703 111.065423 74.754911
-45.484394 111.800789 74.698006
-43.612314 112.124653 74.594114
-42.041062 113.148811 74.570184
-40.097880 113.307155 74.447393
-38.473673 114.208041 74.409387
-36.477537 114.243112 74.272520
-34.906285 115.267270 74.248590
-32.910148 115.302342 74.111723
-31.320650 116.284026 74.082943
-29.342759 116.361572 73.950926
-27.629495 117.055141 73.889249
-25.775371 117.420802 73.790130
-23.938340 117.826255 73.695554
-22.207982 118.480031 73.629333
-20.211845 118.515103 73.492466
-18.551826 119.332622 73.444941
-16.644456 119.574333 73.331669
-14.648320 119.609404 73.194802
-12.864874 120.139599 73.114470
-11.080931 120.668634 73.034005
-9.084795 120.703706 72.897138
-7.088658 120.738778 72.760272
-5.482564 121.681828 72.727080
-3.521269 121.798007 72.599475
-1.525133 121.833079 72.462608
0.471004 121.868151 72.325741
2.467140 121.903223 72.188874
4.195982 122.560530 72.123056
6.034529 122.962452 72.028077
8.030666 122.997524 71.891210
10.026802 123.032596 71.754344
12.022939 123.067668 71.617477
14.019075 123.102739 71.480610
16.015212 123.137811 71.343743
18.011348 123.172883 71.206876
20.007485 123.207955 71.070009
22.003621 123.243026 70.933143
23.999758 123.278098 70.796276
25.995895 123.313170 70.659409
27.992031 123.348242 70.522542
29.988168 123.383313 70.385675
31.984304 123.418385 70.248808
33.578965 122.449852 70.055665
35.575102 122.484924 69.918798
37.571238 122.519995 69.781931
39.567375 122.555067 69.645064
41.563512 122.590139 69.508198
43.251953 121.856037 69.328200
45.154309 121.656677 69.178187
47.150446 121.691749 69.041320
49.146582 121.726821 68.904453
50.741244 120.758287 68.711310
52.737380 120.793359 68.574443
54.733517 120.828431 68.437576
56.371004 119.966955 68.250436
58.324314 119.894969 68.107566
60.320451 119.930041 67.970699
61.915112 118.961508 67.777555
63.911249 118.996579 67.640689
65.505910 118.028046 67.447545
67.502046 118.063118 67.310678
69.206170 117.368217 67.132878
71.092844 117.129656 66.980668
72.913915 116.727100 66.819261
74.683642 116.196194 66.650657
76.337774 115.376327 66.465850
78.274440 115.262733 66.320647
79.869101 114.294199 66.127503
81.865237 114.329271 65.990637
83.469379 113.384436 65.798822
85.456035 113.395809 65.660626
87.050696 112.427276 65.467483
88.645357 111.458743 65.274339
90.600983 111.392546 65.131794
92.236155 110.525281 64.944329
94.024842 110.041773 64.778383
95.736772 109.366386 64.601677
97.421614 108.623286 64.421175
99.016275 107.654752 64.228031
100.610936 106.686219 64.034888
102.300605 105.955184 63.855062
104.201734 105.752757 63.704877
105.796395 104.784224 63.511734
107.436393 103.929024 63.324945
108.985718 102.847157 63.125446
110.580379 101.878624 62.932303
112.288296 101.193208 62.755035
114.000226 100.517821 62.578329
115.712156 99.842435 62.401624
117.140199 98.457392 62.185125
118.852129 97.782006 62.008419
120.549821 97.071028 61.829718
121.992102 95.721576 61.615215
123.704032 95.046190 61.438509
125.132076 93.661147 61.222010
126.560119 92.276105 61.005511
128.272049 91.600718 60.828805
129.700093 90.215675 60.612306
131.310974 89.287689 60.421436
132.840066 88.155246 60.219102
134.268110 86.770203 60.002603
135.696153 85.385161 59.786103
137.124197 84.000118 59.569604
138.836127 83.324732 59.392899
140.264170 81.939689 59.176400
141.692214 80.554646 58.959901
143.120258 79.169604 58.743401
144.548301 77.784561 58.526902
145.976345 76.399519 58.310403
147.404389 75.014476 58.093904
148.832432 73.629433 57.877405
150.260476 72.244391 57.660906
151.688520 70.859348 57.444407
152.414649 69.170090 57.251489
153.842693 67.785047 57.034990
154.884280 66.232511 56.831474
155.996866 64.710746 56.625573
156.916437 63.105327 56.426157
157.932515 61.541735 56.223498
158.877170 59.947187 56.023239
160.305213 58.562145 55.806740
161.031343 56.872886 55.613823
161.996829 55.287367 55.412864
163.012907 53.723775 55.210205
163.911646 52.109327 55.011488
164.637776 50.420069 54.818571
166.061143 49.032999 54.602229
166.090035 47.041553 54.432736
167.100643 45.475590 54.230261
168.116722 43.911998 54.027602
168.268424 41.973778 53.853983
169.156222 40.354588 53.655634
170.172301 38.790996 53.452976
170.446814 36.906003 53.275231
171.211801 35.233586 53.081008
171.235223 33.239768 52.911699
172.251302 31.676176 52.709040
172.649419 29.844755 52.527143
173.290802 28.118767 52.337072
173.314225 26.124949 52.167763
174.125894 24.472764 51.971972
174.353725 22.567539 51.795795
174.377147 20.573721 51.626486
174.400570 18.579904 51.457177
175.416648 17.016312 51.254518
175.440070 15.022494 51.085209
175.463492 13.028676 50.915900
175.486915 11.034858 50.746591
175.510337 9.041040 50.577281
175.533759 7.047223 50.407972
175.557181 5.053405 50.238663
175.580603 3.059587 50.069354
175.385627 1.151872 49.922583
174.625095 -0.532875 49.834175
174.648517 -2.526693 49.664866
174.671940 -4.520510 49.495557
174.058570 -6.263276 49.391963
173.716431 -8.112972 49.260379
173.739854 -10.106790 49.091070
172.760923 -11.705434 49.025200
172.731513 -13.678423 48.861343
171.805415 -15.297896 48.790022
171.828837 -17.291713 48.620713
170.849907 -18.890357 48.554844
170.695686 -20.814140 48.403867
169.894399 -22.482819 48.319665
169.323387 -24.242283 48.211700
168.637237 -25.956355 48.115617
167.951088 -27.670427 48.019533
166.981030 -29.272568 47.952749
166.578789 -31.098570 47.827367
165.183870 -32.533212 47.804427
164.497720 -34.247284 47.708343
163.811571 -35.961355 47.612260
163.088731 -37.660962 47.519963
161.730502 -39.110069 47.493236
161.044352 -40.824140 47.397153
159.649432 -42.258782 47.374213
158.963283 -43.972854 47.278129
157.568363 -45.407495 47.255189
156.212796 -46.857651 47.228188
155.487294 -48.556208 47.136166
154.801145 -50.270280 47.040082
153.406225 -51.704922 47.017142
152.011305 -53.139563 46.994202
150.616386 -54.574205 46.971262
149.336861 -56.054341 46.936413
148.535317 -57.722918 46.852238
147.140397 -59.157560 46.829298
145.745477 -60.592201 46.806358
144.350557 -62.026843 46.783418
142.955638 -63.461485 46.760477
141.560718 -64.896126 46.737537
140.032763 -66.021076 46.749958
138.470440 -67.066020 46.771515
137.075520 -68.500661 46.748575
135.680601 -69.935303 46.725635
134.285681 -71.369944 46.702694
132.601386 -72.130952 46.756672
131.195403 -73.539838 46.736672
129.800483 -74.974480 46.713732
128.105125 -75.709732 46.770650
126.710205 -77.144373 46.747710
125.170010 -78.240828 46.763385
123.619927 -79.314267 46.781688
122.027505 -80.289144 46.811245
120.456253 -81.313302 46.835175
118.834291 -82.219412 46.872584
117.313749 -83.361617 46.883035
115.742496 -84.385775 46.906965
114.048655 -85.124558 46.963480
112.353296 -85.859810 47.020399
110.657938 -86.595062 47.077317
109.263019 -88.029704 47.054377
107.567660 -88.764956 47.111295
105.890099 -89.541637 47.163482
104.176944 -90.235460 47.225131
102.481585 -90.970712 47.282049
100.786227 -91.705964 47.338967
99.180205 -92.649182 47.372139
97.608953 -93.673340 47.396069
96.000591 -94.611110 47.429864
94.041564 -94.732570 47.556866
92.470312 -95.756728 47.580796
90.614077 -96.117476 47.680476
88.918719 -96.852728 47.737395
87.331671 -97.840116 47.765523
85.528003 -98.323232 47.851231
83.764282 -98.899345 47.926320
81.836847 -99.094347 48.044926
80.196894 -99.958575 48.087117
78.446131 -100.564851 48.158762
76.629505 -101.017805 48.247914
75.055414 -102.035355 48.272598
73.062116 -102.077034 48.408711
71.364259 -102.806469 48.466293
69.494727 -103.136264 48.569508
67.673104 -103.577584 48.659988
65.927339 -104.195494 48.730304
63.981949 -104.348698 48.853683
62.359950 -105.254723 48.891101
60.363813 -105.289795 49.027968
58.595435 -105.855065 49.104295
56.796425 -106.349025 49.188765
54.800288 -106.384097 49.325632
52.908483 -106.662042 49.434767
51.232899 -107.443326 49.486429
49.236763 -107.478398 49.623296
47.240626 -107.513470 49.760162
45.526173 -108.204271 49.822156
43.673237 -108.572700 49.920959
41.677101 -108.607771 50.057826
39.680964 -108.642843 50.194693
37.684828 -108.677915 50.331560
35.847627 -109.082973 50.426181
34.117439 -109.737145 50.492357
32.121302 -109.772216 50.629224
30.125166 -109.807288 50.766090
28.129029 -109.842360 50.902957
26.132893 -109.877432 51.039824
24.136756 -109.912503 51.176691
22.140620 -109.947575 51.313558
20.144483 -109.982647 51.450425
18.148347 -110.017719 51.587291
16.152210 -110.052790 51.724158
14.156074 -110.087862 51.861025
12.159937 -110.122934 51.997892
10.163800 -110.158006 52.134759
8.167664 -110.193077 52.271626
6.492818 -109.424990 52.453529
4.576866 -109.259616 52.601636
2.580730 -109.294688 52.738503
0.584593 -109.329759 52.875370
-1.411543 -109.364831 53.012237
-3.202374 -108.886681 53.177882
-5.002341 -108.431369 53.342247
-6.998478 -108.466441 53.479114
-8.994614 -108.501513 53.615981
-10.617865 -107.604447 53.805117
-12.585412 -107.568051 53.945991
-14.581549 -107.603123 54.082858
-16.577685 -107.638195 54.219725
-18.001842 -109.004775 54.204556
-18.687991 -110.718847 54.108473
-20.082911 -112.153489 54.085532
-21.477831 -113.588130 54.062592
-22.572900 -115.140987 54.008708
-23.558900 -116.736844 53.943569
-24.953820 -118.171485 53.920628
-26.348739 -119.606127 53.897688
-27.850769 -120.791428 53.903218
-29.439017 -121.776020 53.931666
-30.125167 -123.490092 53.835583
-31.820525 -124.225344 53.892501
-33.215445 -125.659986 53.869561
-34.910803 -126.395238 53.926479
-36.305723 -127.829879 53.903539
-38.265210 -127.950267 54.030664
-39.836462 -128.974425 54.054594
-41.407714 -129.998583 54.078524
-43.087156 -130.770887 54.131211
-44.782514 -131.506139 54.188130
-46.546355 -132.081971 54.263251
-48.473669 -132.277254 54.381824
-50.113744 -133.141200 54.424048
-51.864386 -133.747758 54.495661
-53.681133 -134.200430 54.584845
-55.677269 -134.235502 54.721711
-57.250899 -135.254125 54.746274
-59.244658 -135.294731 54.882508
-61.240795 -135.329803 55.019375
-63.236931 -135.364875 55.156242
-65.233068 -135.399947 55.293109
-67.229204 -135.435018 55.429976
-69.225341 -135.470090 55.566843
107.169373 58.559106 91.518194
105.579638 59.514889 91.806168
103.596603 59.462335 92.082116
102.006868 60.418119 92.370089
100.023834 60.365564 92.646037
98.092452 60.445437 92.923565
96.451064 61.268794 93.209959
94.861329 62.224577 93.497932
93.258130 63.145841 93.785494
91.553987 63.808308 94.069969
90.092124 65.091926 94.361852
88.423807 65.846244 94.647422
86.719665 66.508711 94.931897
85.015523 67.171178 95.216373
83.589485 68.546647 95.509351
82.143448 69.870842 95.801717
81.154496 70.895289 96.009617
79.728458 72.270758 96.302595
78.302421 73.646227 96.595573
76.876383 75.021696 96.888551
75.450345 76.397166 97.181529
74.024308 77.772635 97.474508
73.139147 79.389841 97.707432
72.122311 80.948198 97.954976
71.136576 82.520454 98.199068
70.088640 84.064910 98.450065
69.674883 85.892805 98.630650
69.038117 87.621028 98.835995
68.213189 89.265155 99.062232
67.987594 91.177145 99.221924
67.953906 93.174907 99.360310
66.937070 94.733263 99.607854
66.903383 96.731024 99.746239
67.803099 98.366571 99.728853
67.833091 100.339621 99.856611
67.799403 102.337383 99.994996
68.762798 103.948219 99.966982
69.726193 105.559055 99.938969
70.464819 107.257114 99.948466
71.138172 108.980503 99.968856
72.516568 110.430295 99.871584
74.029926 111.568209 99.734430
75.575253 112.632248 99.587829
77.142117 113.646516 99.434863
78.633937 114.834200 99.304073
80.254308 115.724822 99.135296
81.994513 116.338521 98.931106
83.793437 116.816530 98.709564
85.355089 117.842843 98.558138
87.332567 117.908238 98.283832
89.315602 117.960792 98.007884
91.298636 118.013346 97.731935
93.281670 118.065900 97.455987
95.264705 118.118454 97.180039
97.247739 118.171008 96.904090
98.952275 117.509550 96.619627
100.820509 117.267779 96.340169
102.638665 116.897618 96.059179
104.393278 116.364550 95.776247
106.376313 116.417104 95.500299
108.029196 115.623219 95.214257
109.733338 114.960752 94.929781
111.437481 114.298285 94.645306
113.128552 113.602308 94.360431
114.718288 112.646525 94.072458
116.308023 111.690742 93.784485
117.975945 110.935415 93.498902
119.487493 109.779176 93.208538
121.106125 108.897479 92.921449
122.532163 107.522010 92.628471
124.236305 106.859543 92.343995
125.662343 105.484074 92.051017
126.393190 103.797898 91.835226
127.819227 102.422429 91.542248
129.245265 101.046960 91.249270
130.671303 99.671491 90.956292
131.402149 97.985316 90.740501
132.828187 96.609847 90.447523
133.559034 94.923672 90.231732
134.319997 93.250957 90.012597
135.336833 91.692600 89.765053
136.353669 90.134244 89.517508
136.482421 88.178971 89.368568
137.404192 86.578126 89.131579
137.437879 84.580365 88.993193
137.979771 82.809739 88.798382
138.488402 81.024248 88.607264
138.294729 79.114716 88.506822
137.558695 77.415650 88.496892
137.592382 75.417889 88.358507
136.979714 73.670951 88.327989
136.306361 71.947562 88.307599
135.633008 70.224173 88.287209
134.735885 68.587620 88.304163
133.581259 67.050992 88.364091
131.943281 66.201059 88.538071
130.522575 64.849040 88.647846
129.144178 63.399248 88.745118
127.701934 62.096999 88.861257
126.085494 61.197295 89.028873
124.162804 61.005292 89.286989
122.606709 59.966138 89.436773
120.742738 59.638444 89.677537
119.067579 58.874431 89.862505
117.084545 58.821877 90.138453
115.101510 58.769323 90.414401
113.118476 58.716769 90.690349
111.135441 58.664214 90.966298
109.152407 58.611660 91.242246
12.105996 -60.716193 96.936451
10.511132 -59.760546 97.225138
8.522968 -59.813236 97.501800
6.534803 -59.865926 97.778462
4.546639 -59.918616 98.055124
2.951775 -58.962968 98.343811
0.963611 -59.015658 98.620473
-0.961240 -58.906026 98.899071
-2.619418 -58.112701 99.185823
-4.607582 -58.165391 99.462485
-6.202447 -57.209744 99.751172
-8.190611 -57.262434 100.027834
-9.785476 -56.306787 100.316521
-11.773640 -56.359477 100.593183
-13.472267 -55.669855 100.878697
-15.180098 -55.003830 101.163930
-16.887929 -54.337805 101.449164
-18.546398 -53.545225 101.735906
-20.534562 -53.597915 102.012568
-22.129427 -52.642268 102.301255
-23.724291 -51.686621 102.589942
-25.427084 -51.007680 102.875329
-27.134916 -50.341655 103.160562
-28.564642 -48.962628 103.454298
-30.272473 -48.296602 103.739531
-31.702200 -46.917575 104.033267
-33.686779 -46.961075 104.310039
-35.117862 -45.585525 104.603734
-36.825693 -44.919500 104.888967
-38.255419 -43.540473 105.182703
-39.685146 -42.161446 105.476439
-41.267803 -41.174502 105.765499
-42.822703 -40.116394 106.055408
-44.252430 -38.737367 106.349144
-45.682156 -37.358340 106.642880
-47.111883 -35.979313 106.936616
-48.541609 -34.600286 107.230352
-49.773713 -33.132934 107.502145
-50.705871 -31.531525 107.740636
-51.807559 -30.005886 107.997950
-52.870134 -28.462765 108.250921
-53.841405 -26.878837 108.493755
-54.858328 -25.315313 108.741657
-55.768931 -23.704271 108.977755
-56.503467 -22.014538 109.194304
-57.238003 -20.324805 109.410853
-57.972538 -18.635072 109.627401
-58.959794 -17.058288 109.872010
-59.441610 -15.255605 110.060499
-60.010491 -13.491835 110.258655
-60.910681 -11.876139 110.493597
-61.061188 -9.925382 110.645301
-61.094963 -7.922454 110.784044
-62.111886 -6.358929 111.031947
-62.145660 -4.356001 111.170690
-62.179435 -2.353072 111.309433
-62.213210 -0.350143 111.448176
-62.246984 1.652786 111.586920
-62.280759 3.655715 111.725663
-61.969073 5.524585 111.806754
-61.351225 7.274648 111.836750
-61.385000 9.277576 111.975494
-60.643361 10.979601 111.984831
-60.455467 12.896509 112.086581
-59.994568 14.707477 112.142770
-59.317650 16.434616 112.162909
-58.562626 18.131446 112.170013
-57.599318 19.747449 112.142357
-56.636010 21.363453 112.114701
-55.904933 23.069576 112.125801
-55.228015 24.796715 112.145940
-54.551096 26.523855 112.166078
-53.169134 27.977397 112.068555
-52.492216 29.704536 112.088693
-51.110254 31.158078 111.991170
-49.892855 32.675480 111.921110
-49.051373 34.338759 111.913785
-47.669411 35.792302 111.816262
-46.287449 37.245844 111.718739
-44.905487 38.699386 111.621215
-43.523525 40.152928 111.523692
-41.839672 40.908839 111.336956
-40.457710 42.362381 111.239433
-39.075748 43.815923 111.141910
-37.467617 44.746819 110.977551
-36.009932 46.025376 110.857651
-34.345167 46.825397 110.676557
-32.642225 47.537197 110.484180
-31.222717 48.903976 110.375562
-29.576409 49.746650 110.199922
-28.100267 50.982555 110.074567
-26.510593 51.956103 109.915663
-24.826740 52.712014 109.728928
-23.142886 53.467925 109.542192
-21.428428 54.153113 109.346413
-19.473288 54.282116 109.079510
-17.879039 55.245093 108.919253
-16.317814 56.284382 108.768756
-14.723618 57.247480 108.608516
-12.768425 57.376361 108.341597
-11.054020 58.061671 108.145833
-9.219036 58.468341 107.914437
-7.384421 58.875861 107.683150
-5.669647 59.560320 107.487278
-3.714822 59.690052 107.220468
-2.120258 60.652300 107.060118
-0.132094 60.704990 106.783456
1.638630 61.260154 106.571050
3.417295 61.796969 106.356297
5.405459 61.849659 106.079635
7.393623 61.902349 105.802972
9.279719 62.190904 105.556472
10.943012 62.994329 105.375813
12.931176 63.047019 105.099151
14.919340 63.099709 104.822489
16.907504 63.152399 104.545827
18.895668 63.205089 104.269164
20.883832 63.257779 103.992502
22.871996 63.310469 103.715840
24.860160 63.363159 103.439178
26.848324 63.415849 103.162516
28.557269 62.752680 102.877317
30.431353 62.512891 102.597167
32.419517 62.565581 102.320505
34.407681 62.618272 102.043843
36.222907 62.227586 101.761893
37.990710 61.715314 101.478493
39.978874 61.768004 101.201831
41.624505 60.942513 100.914696
43.561902 60.865047 100.636482
45.318272 60.323465 100.352733
47.144931 59.962090 100.071133
49.012039 59.704417 99.790770
50.727960 59.059133 99.505784
52.427701 58.372367 99.220303
54.310989 58.156176 98.940435
55.905853 57.200528 98.651748
57.829299 57.087294 98.373107
59.488882 56.297571 98.086399
61.244961 55.755244 97.802641
62.952792 55.089219 97.517408
64.660623 54.423194 97.232175
66.261640 53.483320 96.943676
67.856505 52.527673 96.654989
69.506012 51.712117 96.367972
71.046234 50.616378 96.077615
72.643570 49.667065 95.789003
74.073296 48.288038 95.495267
75.781127 47.622013 95.210034
77.425693 46.793789 94.922867
78.918685 45.576961 94.631065
80.348411 44.197933 94.337329
82.056242 43.531908 94.052096
83.485969 42.152881 93.758360
84.915695 40.773854 93.464624
86.345422 39.394827 93.170888
87.775148 38.015800 92.877152
88.722080 36.420994 92.637021
89.939410 34.947040 92.366867
91.369137 33.568013 92.073131
92.103673 31.878279 91.856583
93.533399 30.499252 91.562847
94.267935 28.809519 91.346298
95.002470 27.119786 91.129749
95.840540 25.476326 90.901705
96.857463 23.912802 90.653802
97.874386 22.349278 90.405900
98.635804 20.671559 90.186366
99.370339 18.981826 89.969818
99.942006 17.219301 89.771352
100.144220 15.291653 89.613907
100.992703 13.652848 89.384706
101.026478 11.649919 89.245963
101.652636 9.911748 89.041448
102.077175 8.083466 88.859318
102.110950 6.080537 88.720574
102.144724 4.077608 88.581831
102.178499 2.074679 88.443088
102.212274 0.071751 88.304345
102.246048 -1.931178 88.165601
101.282740 -3.547182 88.193257
101.316515 -5.550111 88.054514
101.282745 -7.526829 87.927043
100.386982 -9.169044 87.943426
99.928908 -10.981107 87.886766
99.457448 -12.787976 87.832339
98.575071 -14.435386 87.846489
97.898153 -16.162525 87.826350
97.221235 -17.889665 87.806212
96.544316 -19.616804 87.786073
95.637992 -21.254921 87.804219
94.674684 -22.870924 87.831875
93.808518 -24.524625 87.843319
92.748068 -26.102932 87.887187
91.749637 -27.705306 87.920704
90.821453 -29.334940 87.942498
89.690757 -30.885987 87.998089
88.308795 -32.339530 88.095612
86.926833 -33.793072 88.193136
85.544871 -35.246614 88.290659
84.162909 -36.700156 88.388182
82.666837 -37.890005 88.519426
81.097093 -38.909609 88.672441
79.715131 -40.363151 88.769964
78.031277 -41.119062 88.956700
76.421937 -42.047163 89.121416
74.965462 -43.328515 89.240958
73.583500 -44.782057 89.338482
71.899646 -45.537968 89.525217
70.517684 -46.991510 89.622740
68.833830 -47.747421 89.809476
67.149977 -48.503331 89.996211
65.493362 -49.322188 90.174897
63.932137 -50.361478 90.325394
62.370912 -51.400767 90.475892
60.414562 -51.526975 90.743152
58.821523 -52.492747 90.903051
57.046855 -53.038797 91.116623
55.272134 -53.584726 91.330211
53.679148 -54.550619 91.490094
51.722745 -54.676705 91.757370
50.161521 -55.715995 91.907867
48.173357 -55.768685 92.184530
46.612132 -56.807974 92.335027
44.623968 -56.860664 92.611689
42.972243 -57.690822 92.788930
41.074579 -57.952644 93.038849
39.086415 -58.005334 93.315511
37.525190 -59.044623 93.466008
35.537026 -59.097313 93.742670
33.548862 -59.150003 94.019332
31.560698 -59.202693 94.295994
29.977702 -60.191674 94.452925
28.011309 -60.294673 94.723154
26.023144 -60.347363 94.999816
24.034980 -60.400053 95.276478
22.046816 -60.452743 95.553140
20.058652 -60.505433 95.829802
18.070488 -60.558123 96.106465
16.082324 -60.610813 96.383127
14.094160 -60.663503 96.659789
-77.741427 -147.941878 140.601548
-79.347157 -147.009432 140.867033
-81.334610 -147.088797 141.086702
-83.163033 -146.746629 141.325458
-84.927793 -146.235716 141.571856
-86.867410 -146.188283 141.797267
-88.520976 -145.382635 142.057010
-90.301868 -144.914479 142.301471
-92.019096 -144.277577 142.553573
-93.719889 -143.597108 142.807648
-95.325619 -142.664662 143.073132
-96.931349 -141.732217 143.338617
-98.888012 -141.729968 143.561982
-100.335322 -140.377607 143.846480
-102.052550 -139.740705 144.098582
-103.499860 -138.388344 144.383080
-104.947170 -137.035984 144.667578
-106.565728 -136.137541 144.931523
-108.111708 -135.046721 145.204179
-109.559018 -133.694360 145.488677
-111.006328 -132.342000 145.773175
-112.453638 -130.989639 146.057673
-113.207360 -129.317694 146.291287
-114.654670 -127.965333 146.575785
-116.101980 -126.612973 146.860283
-117.201558 -125.100387 147.119271
-118.303012 -123.588667 147.378395
-119.282021 -122.020527 147.628537
-119.810458 -120.244776 147.845623
-120.564181 -118.572830 148.079237
-121.421837 -116.948774 148.320475
-122.462068 -115.408844 148.575109
-123.502300 -113.868914 148.829742
-123.579072 -111.885049 149.013692
-124.601884 -110.337092 149.267047
-124.661235 -108.345200 149.449719
-125.701467 -106.805270 149.704352
-125.760819 -104.813378 149.887024
-125.960513 -102.886152 150.079991
-126.860403 -101.281556 150.324329
-126.919754 -99.289665 150.507000
-126.979106 -97.297773 150.689672
-127.038458 -95.305882 150.872344
-127.097810 -93.313990 151.055016
-127.157162 -91.322098 151.237687
-127.216514 -89.330207 151.420359
-126.709106 -87.548368 151.519840
-126.329767 -85.719065 151.638119
-126.389119 -83.727173 151.820790
-125.462829 -82.100581 151.858786
-125.502372 -80.116031 152.038550
-124.868964 -78.380891 152.119536
-124.615625 -76.504889 152.256310
-123.669527 -74.885639 152.291398
-122.911726 -73.196601 152.354125
-122.259313 -71.468505 152.432321
-121.836681 -69.655246 152.544245
-121.896033 -67.663355 152.726917
-122.874706 -66.095060 152.977034
-123.628429 -64.423114 153.210648
-125.075739 -63.070754 153.495146
-126.056960 -61.503633 153.745450
-127.276771 -60.046448 154.013258
-128.137424 -58.423773 154.254716
-129.477804 -57.022142 154.531370
-130.231527 -55.350196 154.764983
-131.258119 -53.803981 155.018616
-132.298351 -52.264051 155.273249
-133.186282 -50.653945 155.516709
-134.378814 -49.184190 155.782516
-134.693728 -47.310054 155.983937
-135.478398 -45.652369 156.219821
-136.518630 -44.112438 156.474454
-137.558861 -42.572508 156.729087
-137.708619 -40.622273 156.918392
-138.658445 -39.040686 157.166392
-139.216065 -37.278382 157.385619
-139.758028 -35.508864 157.603697
-140.029924 -33.614906 157.801962
-140.857612 -31.977042 158.041002
-141.537369 -30.271015 158.269190
-141.957196 -28.445220 158.478307
-142.016547 -26.453329 158.660979
-143.056779 -24.913398 158.915612
-143.116131 -22.921507 159.098284
-143.175483 -20.929615 159.280956
-143.285359 -18.961004 159.467334
-144.275066 -17.397793 159.718261
-144.334418 -15.405902 159.900932
-144.393770 -13.414010 160.083604
-144.453122 -11.422118 160.266276
-144.512474 -9.430227 160.448948
-144.571826 -7.438335 160.631619
-144.631177 -5.446444 160.814291
-144.690529 -3.454552 160.996963
-144.274386 -1.638889 161.109840
-143.803782 0.156590 161.214723
-143.863134 2.148482 161.397394
-143.922486 4.140373 161.580066
-143.086656 5.800491 161.631340
-143.035739 7.751515 161.797826
-143.095091 9.743407 161.980497
-142.148993 11.362657 162.015585
-141.898927 13.239872 162.152840
-141.262246 14.973799 162.233345
-141.305062 16.959562 162.413590
-140.375499 18.584941 162.451105
-140.000236 20.415756 162.569982
-139.347824 22.143852 162.648178
-138.542654 23.815334 162.703952
-138.042998 25.600045 162.804571
-137.390585 27.328142 162.882767
-136.709808 29.045726 162.956800
-136.085760 30.784335 163.039159
-134.817611 32.284227 163.026976
-134.069973 33.977031 163.091194
-133.417561 35.705128 163.169390
-132.765148 37.433224 163.247587
-132.038667 39.133870 163.314911
-130.749361 40.625921 163.299622
-129.385988 42.090520 163.273460
-128.733575 43.818617 163.351656
-128.081162 45.546713 163.429853
-126.717789 47.011313 163.403691
-126.065376 48.739409 163.481888
-124.702002 50.204009 163.455726
-123.464429 51.715233 163.448030
-122.686216 53.396705 163.507761
-121.322843 54.861305 163.481600
-119.959469 56.325904 163.455438
-118.596095 57.790504 163.429277
-117.232722 59.255103 163.403116
-115.869348 60.719703 163.376954
-114.505975 62.184302 163.350793
-113.142601 63.648902 163.324632
-111.779228 65.113501 163.298470
-110.415854 66.578101 163.272309
-109.052481 68.042700 163.246148
-107.513499 69.117512 163.165536
-106.013870 70.279674 163.097126
-104.650496 71.744273 163.070964
-103.287123 73.208873 163.044803
-101.768894 74.329749 162.970626
-100.222482 75.388069 162.887710
-98.573275 76.218219 162.772920
-97.209901 77.682819 162.746759
-95.583248 78.563030 162.638962
-94.171291 79.919792 162.597737
-92.496054 80.692165 162.474876
-90.944013 81.737991 162.390215
-89.457443 82.929139 162.325854
-87.851190 83.854632 162.224383
-86.304778 84.912952 162.141467
-84.743595 85.938485 162.053971
-83.068358 86.710859 161.931111
-81.393121 87.483232 161.808250
-79.717884 88.255606 161.685389
-78.131679 89.225598 161.590134
-76.585267 90.283918 161.507219
-75.004036 91.264952 161.413506
-73.328799 92.037326 161.290646
-71.653562 92.809700 161.167785
-69.978325 93.582073 161.044924
-68.412168 94.596565 160.955886
-66.627851 95.126820 160.799203
-64.952614 95.899194 160.676342
-63.331891 96.792570 160.570385
-61.602140 97.443941 160.430621
-59.926903 98.216314 160.307760
-58.251615 98.988576 160.184883
-56.576429 99.761062 160.062038
-54.717750 100.126261 159.882298
-53.171339 101.184581 159.799382
-51.238854 101.385956 159.596757
-49.637474 102.322267 159.496797
-47.650021 102.401632 159.277127
-46.103609 103.459952 159.194212
-44.116156 103.539317 158.974542
-42.550805 104.555598 158.885754
-40.582291 104.677002 158.671957
-38.888467 105.408119 158.543333
-37.048426 105.814687 158.369372
-35.226129 106.260640 158.200912
-33.514562 106.952373 158.066786
-31.527108 107.031738 157.847117
-29.888555 107.885535 157.735630
-27.993244 108.169423 157.544531
-26.005791 108.248788 157.324862
-24.239116 108.818204 157.173649
-22.471926 109.386473 157.022277
-20.484473 109.465838 156.802607
-18.497019 109.545203 156.582938
-16.914441 110.523246 156.488808
-14.963155 110.682888 156.280352
-12.975701 110.762253 156.060683
-10.988248 110.841618 155.841014
-9.000795 110.920983 155.621344
-7.290802 111.616210 155.487706
-5.466930 112.058668 155.318759
-3.479477 112.138033 155.099089
-1.492024 112.217398 154.879420
0.495429 112.296763 154.659750
2.482883 112.376128 154.440081
4.470336 112.455493 154.220411
6.457789 112.534858 154.000742
8.445242 112.614223 153.781073
10.432695 112.693588 153.561403
12.420149 112.772953 153.341734
14.407602 112.852318 153.122064
16.395055 112.931683 152.902395
18.382508 113.011048 152.682725
20.369961 113.090413 152.463056
21.975691 112.157967 152.197571
23.963144 112.237332 151.977902
25.950598 112.316697 151.758233
27.938051 112.396061 151.538563
29.925504 112.475426 151.318894
31.620400 111.779329 151.064111
33.518687 111.622345 150.833740
35.506140 111.701710 150.614070
37.493593 111.781075 150.394401
39.099323 110.848629 150.128916
41.086776 110.927994 149.909247
43.074230 111.007359 149.689578
44.720679 110.182846 149.428980
46.667413 110.154278 149.204424
48.654866 110.233643 148.984754
50.260596 109.301197 148.719270
52.248049 109.380562 148.499600
53.853779 108.448117 148.234116
55.841232 108.527481 148.014447
57.551039 107.870905 147.761454
59.434415 107.674401 147.529293
61.255415 107.312559 147.289645
63.027598 106.821320 147.044139
64.689873 106.038755 146.785441
66.620781 105.968239 146.558985
68.226511 105.035793 146.293501
70.213964 105.115158 146.073831
71.828708 104.206604 145.809429
73.807147 104.262077 145.588677
75.412877 103.329631 145.323193
77.018607 102.397185 145.057708
78.967542 102.374453 144.833416
80.611790 101.544104 144.572555
82.402000 101.100649 144.329212
84.119229 100.463747 144.077110
85.810703 99.758577 143.821916
87.416433 98.826131 143.556432
89.022163 97.893685 143.290948
90.718225 97.200679 143.036305
92.615346 97.040605 142.805794
94.221076 96.108159 142.540309
95.869912 95.289973 142.279999
97.432535 94.243267 142.009340
99.038265 93.310821 141.743856
100.751679 92.663808 141.491296
102.468908 92.026905 141.239194
104.186137 91.390003 140.987092
105.633447 90.037642 140.702594
107.350676 89.400740 140.450491
109.054368 88.727956 140.196765
110.515214 87.411477 139.913891
112.232443 86.774575 139.661789
113.679753 85.422215 139.377291
115.127063 84.069854 139.092793
116.844291 83.432952 138.840690
118.291601 82.080591 138.556192
119.912753 81.189024 138.292559
121.456140 80.091328 138.019592
122.903449 78.738968 137.735094
124.350759 77.386607 137.450596
125.798069 76.034247 137.166097
127.515298 75.397345 136.913995
128.962607 74.044984 136.629497
130.409917 72.692623 136.344999
131.857227 71.340263 136.060501
133.304536 69.987902 135.776002
134.751846 68.635542 135.491504
136.199156 67.283181 135.207006
137.646466 65.930821 134.922508
139.093775 64.578460 134.638010
140.541085 63.226100 134.353511
141.294808 61.554154 134.119898
142.742118 60.201794 133.835400
143.807555 58.673477 133.578917
144.943150 57.177488 133.317288
145.888019 55.593617 133.069651
146.928250 54.053686 132.815017
147.897906 52.481236 132.565562
149.345215 51.128876 132.281064
150.098938 49.456930 132.047450
151.089178 47.893965 131.796484
152.129409 46.354035 131.541851
153.053693 44.760679 131.295724
153.807416 43.088734 131.062111
155.250105 41.734244 130.777951
155.314862 39.744843 130.594883
156.349688 38.202422 130.340646
157.389920 36.662491 130.086013
157.576031 34.729007 129.894042
158.489503 33.130669 129.648708
159.529735 31.590739 129.394075
159.837199 29.713170 129.193201
160.629319 28.058917 128.956770
160.688671 26.067026 128.774098
161.728902 24.527095 128.519465
162.158504 22.705804 128.309630
162.828486 20.995273 128.082160
162.887838 19.003382 127.899488
163.726085 17.370383 127.659673
163.987421 15.471560 127.462183
164.046773 13.479668 127.279511
164.106125 11.487777 127.096840
165.146357 9.947846 126.842206
165.205709 7.955955 126.659535
165.265060 5.964063 126.476863
165.324412 3.972172 126.294191
165.383764 1.980280 126.111519
165.443116 -0.011612 125.928848
165.502468 -2.003503 125.746176
165.561820 -3.995395 125.563504
165.402098 -5.906093 125.412989
164.675073 -7.606537 125.345745
164.734425 -9.598428 125.163073
164.793776 -11.590320 124.980401
164.214369 -13.345474 124.891489
163.907030 -15.201462 124.762641
163.966381 -17.193354 124.579970
163.020283 -18.812604 124.544882
163.026639 -20.784854 124.369989
162.133536 -22.423746 124.327122
162.192888 -24.415638 124.144450
161.246789 -26.034888 124.109363
161.127949 -27.960738 123.952847
160.360043 -29.646030 123.891603
159.823123 -31.416931 123.796454
159.170711 -33.145028 123.718258
158.518298 -34.873124 123.640062
157.581099 -36.495673 123.603667
157.213472 -38.329317 123.483669
155.850099 -39.793917 123.509831
155.197686 -41.522014 123.431634
154.545273 -43.250110 123.353438
153.856056 -44.964566 123.280644
152.529487 -46.442806 123.301403
151.877074 -48.170903 123.223207
150.513700 -49.635502 123.249368
149.861288 -51.363599 123.171172
148.497914 -52.828199 123.197333
147.174015 -54.307428 123.217701
146.482128 -56.020895 123.145299
145.829715 -57.748991 123.067102
144.466341 -59.213591 123.093264
143.102968 -60.678190 123.119425
141.739594 -62.142790 123.145586
140.491973 -63.650290 123.154757
139.723808 -65.335486 123.093551
138.360434 -66.800086 123.119713
136.997061 -68.264685 123.145874
135.633687 -69.729285 123.172035
134.270314 -71.193884 123.198197
132.906940 -72.658484 123.224358
131.405473 -73.816564 123.293338
129.868330 -74.895457 123.373380
128.504956 -76.360056 123.399541
127.141582 -77.824656 123.425703
125.778209 -79.289255 123.451864
124.114456 -80.087121 123.571164
122.739598 -81.526229 123.600886
121.376225 -82.990828 123.627047
119.700988 -83.763202 123.749908
118.337614 -85.227801 123.776070
116.823440 -86.357678 123.848990
115.299003 -87.464774 123.925092
113.730617 -88.474318 124.014821
112.184205 -89.532638 124.097737
110.585156 -90.474121 124.196974
109.091382 -91.649279 124.263569
107.544971 -92.707599 124.346485
105.871308 -93.483468 124.468857
104.196071 -94.255841 124.591718
102.520834 -95.028215 124.714579
101.157460 -96.492814 124.740740
99.482223 -97.265188 124.863601
97.825460 -98.078566 124.980733
96.131749 -98.809935 125.109322
94.456512 -99.582308 125.232183
92.781275 -100.354682 125.355044
91.198772 -101.332892 125.449150
89.652360 -102.391212 125.532066
88.067427 -103.364029 125.626926
86.118495 -103.528897 125.834652
84.572084 -104.587218 125.917567
82.729852 -104.988923 126.092208
81.054615 -105.761297 126.215069
79.491807 -106.783223 126.303069
77.704141 -107.306044 126.460790
75.957943 -107.920909 126.605654
74.041803 -108.158565 126.803211
72.424078 -109.058594 126.908239
70.691329 -109.703312 127.048932
68.890213 -110.196279 127.210824
67.340855 -111.248059 127.294654
65.356348 -111.333964 127.513410
63.678517 -112.100580 127.637075
61.822484 -112.471650 127.815995
60.016180 -112.953102 127.979496
58.288619 -113.609335 128.118580
56.353842 -113.805623 128.321917
54.754754 -114.747020 128.421166
52.767301 -114.826385 128.640835
51.016267 -115.430517 128.787198
49.233436 -115.964070 128.943421
47.245983 -116.043435 129.163090
45.366829 -116.363186 129.349179
43.712118 -117.181120 129.465675
41.724665 -117.260485 129.685345
39.737212 -117.339850 129.905014
38.042154 -118.068228 130.034021
36.203347 -118.477536 130.207599
34.215894 -118.556901 130.427269
32.228441 -118.636266 130.646938
30.240987 -118.715630 130.866608
28.418514 -119.161192 131.035122
26.707123 -119.853316 131.169193
24.719669 -119.932681 131.388863
22.732216 -120.012046 131.608532
20.744763 -120.091411 131.828202
18.757310 -120.170776 132.047871
16.769857 -120.250140 132.267540
14.782403 -120.329505 132.487210
12.794950 -120.408870 132.706879
10.807497 -120.488235 132.926549
8.820044 -120.567600 133.146218
6.832591 -120.646965 133.365888
4.845138 -120.726330 133.585557
2.857684 -120.805695 133.805227
0.870231 -120.885060 134.024896
-0.811739 -120.154699 134.281230
-2.722952 -120.031979 134.510050
-4.710405 -120.111344 134.729719
-6.697858 -120.190709 134.949389
-8.685312 -120.270074 135.169058
-10.477560 -119.832021 135.412157
-12.278495 -119.416993 135.654212
-14.265948 -119.496358 135.873882
-16.253401 -119.575723 136.093551
-17.886313 -118.715328 136.355773
-19.846584 -118.722642 136.578705
-21.834037 -118.802007 136.798374
-23.821490 -118.881372 137.018044
-25.215213 -120.278607 137.053615
-25.867626 -122.006704 136.975419
-27.230999 -123.471304 137.001581
-28.594373 -124.935903 137.027742
-29.656970 -126.511977 137.009754
-30.610159 -128.128599 136.975707
-31.973533 -129.593199 137.001868
-33.336906 -131.057798 137.028030
-34.811463 -132.275611 137.088665
-36.375517 -133.294771 137.177052
-37.027930 -135.022868 137.098856
-38.703167 -135.795242 137.221716
-40.066540 -137.259841 137.247878
-41.741777 -138.032215 137.370738
-43.105151 -139.496814 137.396900
-45.054561 -139.660621 137.604773
-46.600973 -140.718942 137.687689
-48.147384 -141.777262 137.770605
-49.806099 -142.586308 137.888343
-51.481336 -143.358682 138.011203
-53.227661 -143.973268 138.156106
-55.143674 -144.211203 138.353624
-56.761525 -145.110953 138.458691
-58.494148 -145.755950 138.599346
-60.295390 -146.248638 138.761277
-62.282843 -146.328003 138.980946
-63.831723 -147.380845 139.064627
-65.816708 -147.465688 139.283531
-67.804161 -147.545053 139.503201
-69.791614 -147.624418 139.722870
-71.779068 -147.703783 139.942540
-73.766521 -147.783148 140.162209
-75.753974 -147.862513 140.381879
-0.491327 -67.590806 128.782109
-2.114249 -66.676692 129.048032
-4.105092 -66.780208 129.288745
-6.095935 -66.883724 129.529458
-8.086778 -66.987240 129.770171
-9.709700 -66.073126 130.036094
-11.700543 -66.176642 130.276807
-13.632158 -66.116340 130.521578
-15.314308 -65.366044 130.783443
-17.305151 -65.469560 131.024156
-18.928073 -64.555446 131.290079
-20.918916 -64.658962 131.530792
-22.541838 -63.744848 131.796715
-24.532681 -63.848364 132.037428
-26.252669 -63.202727 132.296700
-27.981268 -62.580904 132.555382
-29.709867 -61.959081 132.814064
-31.392289 -61.209538 133.075910
-33.383132 -61.313054 133.316623
-35.006054 -60.398940 133.582546
-36.628976 -59.484826 133.848469
-38.352862 -58.849968 134.107474
-40.081461 -58.228145 134.366156
-41.549901 -56.886749 134.642664
-43.278500 -56.264926 134.901346
-44.746939 -54.923530 135.177854
-46.734429 -55.017771 135.418797
-48.204137 -53.679885 135.695218
-49.932736 -53.058062 135.953900
-51.401175 -51.716666 136.230409
-52.869615 -50.375270 136.506917
-54.481117 -49.429570 136.773623
-56.066653 -48.412051 137.042107
-57.535092 -47.070655 137.318616
-59.003532 -45.729259 137.595124
-60.471971 -44.387863 137.871632
-61.940411 -43.046467 138.148140
-63.213118 -41.611757 138.406786
-64.188750 -40.035420 138.638319
-65.332289 -38.539130 138.885176
-66.437090 -37.024372 139.128497
-67.451460 -35.466503 139.363566
-68.511046 -33.930189 139.602761
-69.465329 -32.343674 139.832346
-70.245230 -30.674023 140.046017
-71.025130 -29.004372 140.259687
-71.805030 -27.334720 140.473357
-72.835232 -25.784398 140.709871
-73.364830 -23.995418 140.900698
-73.980661 -22.247548 141.099395
-74.924630 -20.656116 141.328038
-75.126090 -18.710698 141.488918
-75.211934 -16.710162 141.639247
-76.271520 -15.173848 141.878442
-76.357363 -13.173311 142.028771
-76.443207 -11.172775 142.179100
-76.529051 -9.172238 142.329429
-76.614895 -7.171702 142.479758
-76.700739 -5.171165 142.630086
-76.436939 -3.295746 142.728137
-75.863269 -1.531212 142.779858
-75.949113 0.469325 142.930187
-75.250153 2.189025 142.963174
-75.111643 4.109278 143.079958
-74.696824 5.930655 143.155429
-74.063368 7.673796 143.198211
-73.350860 9.388648 143.229172
-72.427547 11.028064 143.228615
-71.504233 12.667481 143.228058
-70.815963 14.391006 143.262643
-70.182507 16.134146 143.305425
-69.549051 17.877287 143.348206
-68.202013 19.365077 143.284295
-67.568558 21.108217 143.327076
-66.221520 22.596007 143.263165
-65.041038 24.143398 143.224157
-64.241026 25.826937 143.242035
-62.893988 27.314727 143.178124
-61.546950 28.802517 143.114213
-60.199913 30.290307 143.050301
-58.852875 31.778096 142.986390
-57.185219 32.576511 142.834431
-55.838181 34.064301 142.770520
-54.491143 35.552091 142.706608
-52.903907 36.523420 142.576734
-51.476449 37.838296 142.490738
-49.829066 38.680299 142.344346
-48.141137 39.435125 142.186819
-46.754225 40.837179 142.111957
-45.126443 41.721330 141.970948
-43.679384 42.994058 141.879569
-42.111750 44.007535 141.755078
-40.444094 44.805950 141.603118
-38.776438 45.604365 141.451159
-37.076279 46.332893 141.290274
-35.120508 46.511819 141.059192
-33.548015 47.514849 140.933367
-32.010595 48.593289 140.817173
-30.438158 49.596439 140.691362
-28.482331 49.775245 140.460266
-26.782228 50.503893 140.299396
-24.954067 50.957200 140.103359
-23.126298 51.411348 139.907429
-21.425804 52.139156 139.746451
-19.470368 52.318802 139.515462
-17.897540 53.321112 139.389544
-15.906697 53.424628 139.148831
-14.146782 54.024672 138.971536
-12.378433 54.606584 138.791924
-10.387590 54.710100 138.551211
