ply
format ascii 1.0
element vertex 1133
property float x
property float y
property float z
end_header
-2.976594 -35.542443 -69.466917
-4.512450 -34.456161 -69.412852
-6.515898 -34.345410 -69.323158
-8.519347 -34.234659 -69.233464
-10.055203 -33.148378 -69.179400
-11.987852 -32.889920 -69.095101
-13.594507 -31.951345 -69.035641
-15.597956 -31.840594 -68.945947
-17.133812 -30.754312 -68.891883
-18.998476 -30.354019 -68.812764
-20.337835 -28.857788 -68.773672
-22.208972 -28.470998 -68.694059
-24.008466 -27.934739 -68.619906
-25.678462 -27.128313 -68.555621
-27.017821 -25.632082 -68.516528
-28.687818 -24.825656 -68.452243
-30.355844 -24.015119 -68.388107
-31.697173 -22.522998 -68.348864
-33.036531 -21.026767 -68.309772
-34.146152 -20.023446 -68.273918
-35.447365 -18.726762 -68.233636
-36.994618 -17.664258 -68.178703
-38.333977 -16.168027 -68.139611
-39.673336 -14.671796 -68.100519
-40.803521 -13.675700 -68.063621
-41.240161 -11.862287 -68.070330
-42.656827 -10.966850 -68.018898
-43.528252 -9.306204 -68.003547
-44.867611 -7.809973 -67.964455
-45.485705 -6.060316 -67.961957
-46.299679 -4.379485 -67.949522
-46.721893 -2.561003 -67.956963
-48.152984 -1.670635 -67.904798
-48.043675 0.334605 -67.939207
-47.934366 2.339844 -67.973616
-47.825056 4.345083 -68.008025
-47.715747 6.350322 -68.042434
-47.606437 8.355562 -68.076843
-47.497128 10.360801 -68.111252
-47.387819 12.366040 -68.145660
-47.278509 14.371279 -68.180069
-46.198664 15.909954 -68.251869
-46.083487 17.912373 -68.286504
-45.000708 19.449638 -68.358417
-44.891398 21.454877 -68.392826
-43.807152 22.991436 -68.464796
-42.865242 24.596421 -68.531282
-41.371297 25.936027 -68.619036
-39.877351 27.275632 -68.706790
-39.470168 29.137675 -68.752675
-38.014557 29.895551 -68.830144
-37.164529 31.437138 -68.891512
-35.462378 32.184063 -68.980058
-33.875125 33.258058 -69.068167
-32.220815 34.141169 -69.156532
-31.170031 35.111279 -69.218664
-29.668636 36.429681 -69.306446
-27.921019 37.047182 -69.395166
-26.427073 38.386787 -69.482919
-24.679456 39.004287 -69.571639
-22.946520 39.663580 -69.660303
-21.437893 40.961393 -69.748113
-19.657116 41.484500 -69.836959
-17.942658 42.196394 -69.925552
-16.008965 42.284209 -70.014980
-14.193751 42.709289 -70.103957
-12.699805 44.048895 -70.191711
-10.716112 43.994379 -70.281330
-8.950898 44.561790 -70.370116
-7.067961 44.794088 -70.459351
-5.064513 44.683337 -70.549045
-3.419811 45.593797 -70.637373
-1.416362 45.483046 -70.727066
0.294533 46.205081 -70.815646
2.231789 46.282756 -70.905088
4.235237 46.172005 -70.994782
6.238686 46.061254 -71.084475
8.242134 45.950503 -71.174169
10.245583 45.839752 -71.263863
12.249031 45.729001 -71.353557
14.252480 45.618250 -71.443250
16.255929 45.507499 -71.532944
18.259377 45.396748 -71.622638
20.262826 45.285997 -71.712332
21.990958 44.600858 -71.781047
23.802130 44.088965 -71.856090
25.805579 43.978214 -71.945784
27.662223 43.561188 -72.024292
29.344883 42.781181 -72.089542
31.332854 42.638140 -72.178057
32.884188 41.584148 -72.233301
34.887636 41.473397 -72.322995
36.423492 40.387116 -72.377059
38.343478 40.102238 -72.460393
39.962797 39.190083 -72.520818
41.498652 38.103801 -72.574883
43.022830 36.993154 -72.628057
44.570364 35.931237 -72.683012
46.362823 35.380302 -72.756629
48.032819 34.573875 -72.820915
49.372178 33.077644 -72.860007
50.713788 31.586110 -72.899271
52.381533 30.774987 -72.963385
53.785500 29.413546 -73.007400
55.390888 28.472329 -73.066763
56.730247 26.976098 -73.105855
58.069606 25.479867 -73.144948
59.294730 23.943499 -73.178244
60.027058 22.233980 -73.186537
61.481140 20.977094 -73.234371
62.315149 19.677897 -73.253321
62.969461 17.940966 -73.257656
63.880174 16.294125 -73.275000
64.790887 14.647284 -73.292344
65.508789 12.932696 -73.299905
66.612313 11.353601 -73.327032
66.503003 9.348362 -73.292623
66.641807 7.430300 -73.270803
67.304407 5.696282 -73.275558
67.195097 3.691042 -73.241149
67.085788 1.685803 -73.206740
66.976478 -0.319436 -73.172331
66.867169 -2.324675 -73.137922
66.757860 -4.329914 -73.103514
65.673613 -5.866474 -73.031544
65.161939 -7.678285 -72.981633
64.480058 -9.408273 -72.925165
63.552817 -11.020309 -72.859245
63.286502 -12.950072 -72.818787
61.690022 -13.640228 -72.735890
61.149891 -15.438359 -72.684883
60.080900 -16.982252 -72.613501
58.586954 -18.321858 -72.525747
57.093009 -19.661463 -72.437993
55.837970 -21.115918 -72.359444
54.794502 -22.672081 -72.289045
53.046885 -23.289581 -72.200326
51.642175 -24.672085 -72.116010
50.494706 -25.578093 -72.050411
48.815009 -26.388936 -71.961950
47.253143 -27.535199 -71.873938
45.525605 -28.209856 -71.785295
43.880902 -29.120316 -71.696967
42.263963 -30.109805 -71.608745
40.591498 -30.941237 -71.520311
38.768728 -31.344806 -71.431305
37.021110 -31.962306 -71.342586
35.298645 -32.651406 -71.253962
33.525875 -33.197306 -71.165146
31.650495 -33.451115 -71.075940
30.005792 -34.361575 -70.987612
28.283023 -35.049807 -70.898987
26.357642 -35.161285 -70.809591
24.534116 -35.562702 -70.720582
22.709491 -35.960994 -70.631569
20.706043 -35.850243 -70.541876
18.702594 -35.739492 -70.452182
17.036302 -36.588493 -70.363772
15.054443 -36.539201 -70.274160
13.050995 -36.428450 -70.184466
11.047546 -36.317700 -70.094773
9.044098 -36.206949 -70.005079
7.040649 -36.096198 -69.915385
5.037201 -35.985447 -69.825692
3.033752 -35.874696 -69.735998
1.030303 -35.763945 -69.646304
-0.973145 -35.653194 -69.556610
5.688285 -35.926603 -71.171881
4.060636 -34.978762 -71.111600
2.052326 -35.043656 -71.019107
0.044016 -35.108551 -70.926615
-1.583634 -34.160710 -70.866334
-3.591943 -34.225605 -70.773841
-5.266354 -33.402171 -70.709604
-7.227903 -33.342658 -70.621068
-9.236213 -33.407553 -70.528575
-10.863862 -32.459712 -70.468295
-12.872172 -32.524606 -70.375802
-14.499821 -31.576766 -70.315522
-16.220994 -30.877739 -70.247327
-18.135781 -30.693819 -70.162748
-19.962263 -30.274966 -70.085642
-21.429146 -28.899412 -70.038966
-23.165196 -28.239969 -69.969513
-24.646378 -26.902456 -69.921627
-26.637298 -26.921084 -69.830606
-28.104181 -25.545529 -69.783930
-29.840231 -24.886087 -69.714476
-31.307114 -23.510532 -69.667800
-33.043165 -22.851089 -69.598347
-34.510048 -21.475535 -69.551671
-35.976931 -20.099980 -69.504995
-37.443814 -18.724426 -69.458319
-38.881427 -17.929759 -69.404453
-39.950393 -16.373906 -69.378561
-41.417276 -14.998352 -69.331885
-42.884159 -13.622797 -69.285209
-43.654688 -11.931721 -69.274904
-44.136276 -10.109724 -69.279690
-45.195745 -8.549568 -69.254293
-46.238216 -6.981709 -69.229785
-46.736802 -5.167415 -69.233683
-47.507331 -3.476338 -69.223378
-48.406331 -1.843473 -69.206362
-48.472507 0.166750 -69.232846
-48.538683 2.176972 -69.259329
-48.604859 4.187194 -69.285812
-48.671035 6.197417 -69.312296
-48.737211 8.207639 -69.338779
-48.803387 10.217862 -69.365262
-47.857515 11.846393 -69.432274
-47.923691 13.856615 -69.458757
-46.977818 15.485146 -69.525769
-46.971044 17.467856 -69.555174
-45.597748 18.935185 -69.639303
-44.940079 20.672411 -69.694774
-44.206377 22.380962 -69.753289
-43.338960 23.515717 -69.809479
-41.935749 24.916979 -69.894002
-41.278079 26.654204 -69.949472
-39.904783 28.121534 -70.033601
-38.531487 29.588863 -70.117730
-36.842497 30.358979 -70.206017
-35.469201 31.826308 -70.290146
-34.095905 33.293637 -70.374275
-32.722609 34.760967 -70.458404
-31.033619 35.531082 -70.546691
-29.644684 36.963875 -70.631025
-27.971333 37.768528 -70.719106
-26.282343 38.538643 -70.807393
-24.593353 39.308759 -70.895680
-22.950821 40.181478 -70.983356
-21.388969 41.232381 -71.069968
-19.526383 41.619107 -71.160541
-17.818808 42.348179 -71.249073
-16.148403 43.159339 -71.337115
-14.248647 43.463977 -71.428178
-12.686796 44.514880 -71.514791
-10.765739 44.772473 -71.606134
-9.116635 45.630677 -71.693896
-7.108325 45.695572 -71.786389
-5.383075 46.385607 -71.875154
-3.538163 46.811369 -71.965494
-1.529854 46.876264 -72.057987
0.478456 46.941158 -72.150480
2.486766 47.006053 -72.242973
4.495076 47.070947 -72.335466
6.503386 47.135842 -72.427959
8.511696 47.200736 -72.520452
10.520006 47.265631 -72.612945
12.528316 47.330525 -72.705437
14.536626 47.395420 -72.797930
16.544936 47.460314 -72.890423
18.386296 47.081045 -72.968788
20.180895 46.577368 -73.043196
22.189205 46.642262 -73.135689
23.863616 45.818829 -73.199927
25.825164 45.759316 -73.288463
27.833474 45.824210 -73.380955
29.461123 44.876370 -73.441236
31.346154 44.613282 -73.523296
33.097083 43.993423 -73.594009
34.818255 43.294397 -73.662204
36.352381 42.097742 -73.714570
38.290356 41.975512 -73.801111
39.757239 40.599957 -73.847787
41.615990 40.266954 -73.927623
43.229341 39.281072 -73.986694
44.871289 38.371273 -74.048184
46.498938 37.423432 -74.108464
47.471971 36.271110 -74.135906
49.169376 35.508852 -74.202089
50.797025 34.561011 -74.262370
52.356191 34.146007 -74.327348
53.450651 32.601706 -74.354572
54.917534 31.226151 -74.401248
56.384417 29.850597 -74.447924
57.851300 28.475042 -74.494599
58.621829 26.783966 -74.504905
60.088712 25.408411 -74.551580
60.859240 23.717334 -74.561886
62.326124 22.341780 -74.608561
62.799713 20.516159 -74.603357
63.850683 18.952152 -74.628310
64.637709 17.268550 -74.639477
64.967829 15.377922 -74.626780
65.482412 13.570875 -74.623717
66.084975 11.803693 -74.625249
66.151151 9.793470 -74.598766
66.217327 7.783248 -74.572282
66.283503 5.773025 -74.545799
66.349679 3.762803 -74.519316
66.415855 1.752580 -74.492833
66.482031 -0.257642 -74.466349
65.286736 -1.213954 -74.397833
64.571014 -2.929285 -74.340038
63.971396 -4.688405 -74.286892
63.313726 -6.425631 -74.231421
62.656056 -8.162857 -74.175951
61.799573 -9.825101 -74.112518
60.309396 -10.670199 -74.032193
59.651727 -12.407425 -73.976722
58.278431 -13.874754 -73.892593
57.620761 -15.611980 -73.837123
55.931771 -16.382096 -73.748836
54.558475 -17.849425 -73.664707
53.185179 -19.316754 -73.580578
51.811882 -20.784083 -73.496449
50.122892 -21.554199 -73.408162
48.749596 -23.021529 -73.324034
47.060606 -23.791644 -73.235747
45.687310 -25.258974 -73.151618
43.844665 -25.689741 -73.061307
42.282814 -26.740644 -72.974694
40.620340 -27.569321 -72.886757
38.712653 -27.856442 -72.795589
37.150802 -28.907345 -72.708977
35.553370 -29.879669 -72.621896
33.580641 -30.023143 -72.529872
32.018789 -31.074046 -72.443259
30.170706 -31.492803 -72.352877
28.448628 -32.189843 -72.264154
26.792726 -33.033035 -72.176303
24.878467 -33.305641 -72.085049
22.870157 -33.370535 -71.992556
21.094369 -33.948956 -71.903125
19.299996 -34.486333 -71.813450
17.291686 -34.551227 -71.720958
15.283376 -34.616122 -71.628465
13.391327 -34.937779 -71.537503
11.713215 -35.731919 -71.449359
9.704905 -35.796814 -71.356866
7.696595 -35.861708 -71.264374
-22.916380 -41.863599 5.130153
-24.401431 -40.732623 5.340431
-26.384374 -40.562333 5.578258
-28.367318 -40.392042 5.816085
-30.137829 -39.811863 6.042157
-31.835312 -39.090776 6.264189
-33.818255 -38.920485 6.502016
-35.729947 -38.612714 6.735900
-37.286249 -37.619219 6.950121
-39.269193 -37.448928 7.187948
-40.754243 -36.317952 7.398226
-42.599332 -35.881670 7.628425
-44.222237 -35.016686 7.846331
-45.707287 -33.885710 8.056609
-47.192338 -32.754734 8.266887
-49.116653 -32.471320 8.501470
-50.660332 -31.453468 8.714992
-52.023250 -30.086837 8.918512
-53.630433 -29.191516 9.135548
-54.929846 -27.702355 9.335555
-56.559177 -26.849767 9.553816
-57.836443 -25.317872 9.752598
-59.465774 -24.465285 9.970859
-60.743040 -22.933390 10.169640
-62.020307 -21.401495 10.368422
-63.297573 -19.869600 10.567203
-64.574840 -18.337705 10.765985
-65.598818 -17.291822 10.919505
-66.447995 -15.623233 11.072504
-67.308014 -13.958107 11.226662
-68.146348 -12.286056 11.378501
-69.137202 -10.662706 11.546651
-69.844702 -8.948879 11.684498
-70.693878 -7.280290 11.837496
-71.518312 -5.603800 11.987849
-71.366439 -3.615565 12.033788
-71.896810 -1.845178 12.152691
-72.039000 0.049159 12.230079
-72.888177 1.717748 12.383077
-72.711561 3.713884 12.426370
-72.534945 5.710019 12.469663
-71.571231 7.295204 12.407548
-71.228917 9.204827 12.428650
-71.052301 11.200963 12.471943
-70.358758 12.927207 12.446009
-69.746273 14.695771 12.430930
-68.652138 16.212862 12.351348
-67.798827 17.855689 12.304018
-66.945517 19.498517 12.256688
-66.092207 21.141344 12.209358
-65.052008 22.686595 12.136999
-64.220228 23.896958 12.078329
-62.631096 24.988993 11.927116
-61.104057 26.280060 11.789560
-60.250747 27.922888 11.742230
-58.723707 29.213955 11.604673
-56.969217 29.775948 11.417092
-55.442178 31.067016 11.279536
-54.393640 32.084062 11.189268
-52.606925 32.542762 10.994599
-51.079886 33.833830 10.857043
-49.409805 34.666392 10.688027
-47.798356 35.686890 10.531906
-46.087249 36.387945 10.353866
-44.425970 37.248722 10.186786
-42.534884 37.372869 9.969162
-40.781748 37.939208 9.781878
-39.120470 38.799984 9.614798
-37.459192 39.660761 9.447718
-35.516920 39.620842 9.218836
-33.814970 40.351247 9.042811
-32.007939 40.744828 8.843674
-30.170748 41.041733 8.637904
-28.271506 41.139739 8.418486
-26.526526 41.732219 8.232997
-24.543582 41.561928 7.995170
-22.560639 41.391638 7.757343
-20.798639 41.929562 7.568111
-18.916417 42.082124 7.352436
-16.933473 41.911833 7.114610
-14.950530 41.741542 6.876783
-12.967586 41.571252 6.638956
-10.984642 41.400961 6.401130
-9.001699 41.230671 6.163303
-7.018755 41.060380 5.925476
-5.035812 40.890090 5.687650
-3.262976 40.314395 5.461448
-1.567818 39.588823 5.239545
0.415126 39.418533 5.001718
2.329142 39.115246 4.767705
3.883120 38.117266 4.553613
5.866063 37.946976 4.315787
7.351114 36.816000 4.105509
9.334057 36.645709 3.867682
10.827857 35.531615 3.656920
12.457187 34.679027 3.438659
14.086517 33.826440 3.220397
15.715848 32.973852 3.002136
17.257202 31.951515 2.788743
19.240146 31.781225 2.550916
20.603839 30.416089 2.347353
22.210247 29.519273 2.130360
23.695297 28.388297 1.920081
25.139766 27.179019 1.712049
26.665398 26.126346 1.499525
28.046363 24.794537 1.295006
29.323629 23.262642 1.096224
30.622656 21.772733 0.896239
31.504881 20.646548 0.756755
32.782148 19.114654 0.557974
34.059414 17.582759 0.359192
35.336681 16.050864 0.160411
36.613948 14.518969 -0.038371
37.754326 12.943365 -0.222512
38.443136 11.223569 -0.358360
38.995058 9.460063 -0.479568
40.272324 7.928169 -0.678349
40.125240 5.941463 -0.724801
40.650823 4.169547 -0.843192
40.797801 2.276738 -0.921092
41.646978 0.608150 -1.074090
41.470362 -1.387986 -1.117383
41.293746 -3.384122 -1.160676
41.117131 -5.380258 -1.203969
40.940515 -7.376394 -1.247262
40.763899 -9.372529 -1.290555
40.587283 -11.368665 -1.333848
39.616155 -12.949979 -1.270739
39.281255 -14.863473 -1.292834
38.151842 -16.362145 -1.208529
37.056224 -17.878462 -1.128748
35.893018 -19.359489 -1.039917
35.716402 -21.355625 -1.083210
34.586989 -22.854297 -0.998904
33.415532 -23.720697 -0.889402
31.888493 -25.011765 -0.751846
30.361454 -26.302833 -0.614290
29.168159 -27.768151 -0.521429
27.981104 -29.236728 -0.429404
26.454065 -30.527795 -0.291848
24.927026 -31.818863 -0.154291
23.172535 -32.380856 0.033290
21.418045 -32.942849 0.220871
20.556433 -34.559067 0.270027
18.810244 -35.147670 0.455783
16.912211 -35.249553 0.674934
15.450342 -36.349491 0.810981
14.169170 -37.020873 0.939590
12.466009 -37.747402 1.115882
10.711519 -38.309395 1.303463
8.863669 -38.572136 1.511578
7.202391 -39.432913 1.678658
5.220595 -39.266299 1.916232
3.558169 -40.123399 2.083565
1.711613 -40.390286 2.291395
-0.086053 -40.813884 2.488472
-1.797368 -41.514272 2.666558
-3.730275 -41.504370 2.893379
-5.391553 -42.365147 3.060460
-7.374497 -42.194856 3.298286
-9.357440 -42.024566 3.536113
-11.340384 -41.854275 3.773940
-13.234120 -41.969932 3.992146
-14.984606 -42.544761 4.178847
-16.967549 -42.374471 4.416673
-18.950493 -42.204180 4.654500
-20.933437 -42.033890 4.892327
-13.981183 -45.254374 2.708058
-15.618240 -44.365033 2.928403
-17.602031 -44.501016 3.156510
-19.585821 -44.636999 3.384618
-21.569612 -44.772982 3.612726
-23.553402 -44.908965 3.840834
-25.190460 -44.019624 4.061179
-27.174250 -44.155607 4.289287
-28.867882 -43.433560 4.510898
-30.795099 -43.402249 4.737739
-32.589556 -42.978357 4.961608
-34.082628 -41.663235 5.178729
-36.053004 -41.759550 5.406537
-37.690062 -40.870210 5.626882
-39.673852 -41.006193 5.854989
-41.310910 -40.116852 6.075334
-43.019049 -39.437707 6.297271
-44.585025 -38.338170 6.516024
-46.250369 -37.532476 6.737002
-47.988618 -36.942368 6.959613
-49.496197 -35.670148 7.177059
-51.219938 -35.037138 7.399344
-52.713010 -33.722016 7.616466
-54.407370 -33.002125 7.838093
-55.944330 -31.816786 8.056197
-57.681485 -31.223444 8.278783
-58.493487 -29.571447 8.426894
-59.986559 -28.256325 8.644015
-61.479630 -26.941203 8.861136
-62.982783 -26.233882 9.059955
-63.346624 -24.355754 9.162797
-65.068543 -23.717355 9.385042
-65.258042 -21.792454 9.468954
-66.350497 -20.277595 9.645532
-67.442953 -18.762736 9.822111
-68.328508 -17.144722 9.977751
-68.663140 -15.252031 10.077637
-69.755595 -13.737172 10.254216
-69.883326 -11.741326 10.333164
-70.011058 -9.745480 10.412112
-70.138789 -7.749634 10.491060
-70.266521 -5.753788 10.570008
-70.394252 -3.757942 10.648956
-70.521984 -1.762096 10.727904
-70.649715 0.233750 10.806852
-69.843940 1.913007 10.766260
-69.887585 3.880336 10.834440
-69.377716 5.659947 10.831740
-68.784831 7.411404 10.818410
-67.472399 8.918835 10.712938
-66.879514 10.670292 10.699607
-65.567082 12.177723 10.594135
-65.566010 14.129886 10.656589
-64.045882 14.995422 10.506202
-62.733450 16.502853 10.400730
-61.805633 17.570114 10.326218
-60.914203 19.219473 10.274630
-59.564388 20.142769 10.146052
-58.251956 21.650199 10.040580
-56.822926 22.919445 9.913810
-55.291662 23.979846 9.768364
-53.804084 25.129490 9.630898
-52.331368 26.309493 9.496148
-51.018936 27.816924 9.390676
-49.706504 29.324355 9.285204
-47.766400 29.549581 9.065076
-46.075350 30.283573 8.890443
-44.747558 31.759626 8.782165
-42.763768 31.895609 8.554057
-41.131765 32.750221 8.390210
-39.270556 33.136614 8.184494
-37.761135 34.241637 8.043038
-36.188179 35.216870 7.889977
-34.267924 35.482642 7.673475
-32.557025 36.176088 7.495216
-30.774712 36.723648 7.303911
-28.790922 36.859631 7.075804
-26.942580 37.272308 6.872438
-25.297710 38.100636 6.706240
-23.313920 38.236619 6.478132
-21.330129 38.372602 6.250025
-19.346339 38.508585 6.021917
-17.362548 38.644568 5.793809
-15.378758 38.780551 5.565701
-13.394967 38.916534 5.337593
-11.411177 39.052517 5.109486
-9.427386 39.188500 4.881378
-7.689866 38.596236 4.658784
-5.806538 38.435142 4.432925
-3.822748 38.571125 4.204817
-2.185690 37.681784 3.984472
-0.201899 37.817767 3.756365
1.736909 37.820734 3.529264
3.418949 37.064410 3.307912
5.213407 36.640517 3.084043
7.039797 36.311052 2.859459
8.689904 35.460301 2.638822
10.660645 35.557694 2.411006
12.297702 34.668353 2.190662
14.149827 34.414989 1.965502
15.642899 33.099867 1.748380
17.381148 32.509759 1.525770
19.119396 31.919650 1.303160
20.612468 30.604528 1.086038
22.466780 30.357632 0.860829
24.088965 29.424312 0.640817
25.582037 28.109190 0.423696
27.075108 26.794068 0.206575
29.015010 26.800269 -0.020550
29.869443 25.273742 -0.169611
30.680351 23.618511 -0.317696
32.418236 23.027325 -0.540299
33.512070 21.514050 -0.716988
34.765011 20.183520 -0.906464
35.659597 19.068467 -1.047039
36.589575 17.472601 -1.207175
37.844508 16.038750 -1.400196
38.211392 14.162139 -1.503347
39.934404 13.526973 -1.725616
40.119766 11.597321 -1.809195
40.889295 9.921459 -1.953094
41.339953 8.086617 -2.064722
41.467685 6.090771 -2.143670
42.560140 4.575912 -2.320249
42.687872 2.580066 -2.399197
42.815603 0.584220 -2.478145
42.943334 -1.411626 -2.557092
43.071066 -3.407472 -2.636040
43.198797 -5.403318 -2.714988
42.516477 -7.124444 -2.690205
41.923592 -8.875901 -2.676875
41.546806 -10.700646 -2.691217
40.737821 -12.378815 -2.650214
40.784676 -14.347233 -2.718805
39.552051 -15.881729 -2.623553
38.239619 -17.389160 -2.518081
37.646734 -19.140617 -2.504750
36.334302 -20.648047 -2.399278
35.741417 -22.399504 -2.385948
34.428985 -23.906935 -2.280476
33.116553 -25.414366 -2.175004
31.468691 -26.236582 -2.008260
30.703354 -27.929554 -1.972846
29.227944 -28.810255 -1.828185
27.915512 -30.317686 -1.722713
26.267650 -31.139902 -1.555969
24.619788 -31.962118 -1.389224
23.307356 -33.469549 -1.283752
21.659494 -34.291765 -1.117008
19.915881 -34.918381 -0.932773
18.363770 -35.936198 -0.783519
16.715908 -36.758414 -0.616775
15.068047 -37.580630 -0.450031
13.420185 -38.402846 -0.283286
11.894406 -39.474454 -0.138843
10.384985 -40.579476 0.002613
8.401195 -40.715459 0.230721
6.828737 -41.691711 0.383691
4.907983 -41.956465 0.600284
3.398562 -43.061488 0.741740
1.414772 -43.197470 0.969847
-0.569019 -43.333453 1.197955
-2.552809 -43.469436 1.426063
-4.536600 -43.605419 1.654171
-6.383446 -44.021152 1.857263
-8.029811 -44.846425 2.023734
-10.013602 -44.982408 2.251842
-11.997392 -45.118391 2.479950
16.261451 -29.864793 63.734481
14.780835 -28.708463 63.804874
12.785779 -28.504284 63.856983
10.790722 -28.300104 63.909091
9.310106 -27.143775 63.979484
7.388655 -26.803362 64.034209
5.834433 -25.783266 64.101986
4.130549 -25.040172 64.164443
2.358761 -24.422757 64.224487
0.872442 -23.276982 64.294677
-0.756611 -22.395388 64.359794
-2.385665 -21.513793 64.424911
-4.014718 -20.632198 64.490028
-5.558760 -19.593260 64.558167
-6.909060 -18.195737 64.633192
-8.174349 -16.640870 64.711238
-9.803402 -15.759276 64.776355
-11.068691 -14.204409 64.854401
-12.333979 -12.649543 64.932448
-13.599268 -11.094676 65.010494
-14.131334 -9.320551 65.078680
-15.396623 -7.765685 65.156727
-16.467357 -6.152640 65.232157
-17.193978 -4.436693 65.302959
-17.726045 -2.662568 65.371145
-17.924217 -0.788597 65.434842
-18.755482 0.896058 65.507052
-18.549813 2.890791 65.565317
-18.344145 4.885525 65.623583
-18.138477 6.880258 65.681849
-17.932808 8.874992 65.740114
-17.727140 10.869725 65.798380
-16.791591 12.470668 65.827508
-16.363800 14.345560 65.876907
-15.698800 16.092471 65.916836
-14.815820 17.721777 65.948063
-13.842788 19.302496 65.975695
-12.376693 20.617195 65.983644
-10.820545 21.883308 65.987998
-9.264398 23.149421 65.992352
-8.260097 24.713270 66.018735
-6.606489 25.311948 65.999788
-5.050342 26.578061 66.004142
-3.363888 27.407665 65.991733
-1.719265 28.377396 65.984705
0.007419 29.072234 65.967121
1.693072 29.904519 65.954815
3.386741 30.709952 65.941478
5.064378 31.569088 65.930203
6.750032 32.401373 65.917897
8.745088 32.197193 65.865788
10.486456 32.842840 65.846315
12.425798 32.825298 65.801374
14.255096 33.176393 65.770589
16.106508 33.453403 65.736959
18.023735 33.509946 65.694863
19.787218 34.081508 65.672545
21.782275 33.877329 65.620437
23.777332 33.673149 65.568328
25.772389 33.468970 65.516220
27.767445 33.264790 65.464111
29.453099 34.097075 65.451805
31.448155 33.892895 65.399697
33.443212 33.688715 65.347589
34.923828 32.532386 65.277196
36.918885 32.328207 65.225087
38.848171 32.002296 65.170641
40.394558 30.967698 65.102586
42.389614 30.763518 65.050478
43.870230 29.607189 64.980085
45.728149 29.149189 64.923102
47.345903 28.246680 64.857583
48.986256 27.385999 64.792868
50.821576 26.886171 64.735082
52.302191 25.729842 64.664689
53.873416 24.741214 64.597516
55.502469 23.859620 64.532399
56.767758 22.304753 64.454353
58.396811 21.423158 64.389236
60.025864 20.541564 64.324119
61.291153 18.986697 64.246073
62.394652 17.947943 64.188023
63.452273 16.330977 64.112769
65.045188 15.382497 64.046368
65.613393 13.675257 63.979466
66.876750 12.684307 63.919266
67.708015 10.999652 63.847056
68.306579 9.245412 63.777976
69.370544 7.630343 63.702637
70.103934 5.916420 63.631743
70.636001 4.142295 63.563557
70.827404 2.266300 63.499952
70.621736 0.271566 63.441686
70.416067 -1.723167 63.383420
70.210399 -3.717901 63.325155
70.004731 -5.712634 63.266889
69.799062 -7.707368 63.208623
69.593394 -9.702101 63.150358
68.435722 -11.183203 63.130096
68.162983 -13.141750 63.074508
66.606836 -14.407862 63.070154
65.723856 -16.037168 63.038927
64.167709 -17.303281 63.034573
63.284729 -18.932586 63.003346
61.728581 -20.198699 62.998992
60.172434 -21.464812 62.994639
58.616286 -22.730925 62.990285
57.060139 -23.997037 62.985931
55.373012 -24.824386 62.998426
53.729062 -25.796372 63.005368
52.001705 -26.488955 63.023039
50.179204 -26.862816 63.052949
48.404275 -27.396038 63.076740
46.848127 -28.662151 63.072386
45.073199 -29.195373 63.096176
43.264035 -29.613914 63.124371
41.268979 -29.409735 63.176479
39.529630 -30.062148 63.195693
37.588269 -30.037840 63.240894
35.760991 -30.395701 63.271419
33.907559 -30.665945 63.305308
32.211133 -31.462144 63.319000
30.226849 -31.294050 63.369723
28.231792 -31.089870 63.421831
26.236735 -30.885691 63.473939
24.241678 -30.681511 63.526048
22.246621 -30.477331 63.578156
20.251565 -30.273152 63.630265
18.256508 -30.068972 63.682373
20.117415 -27.700974 62.260434
18.435704 -26.854598 62.325645
16.434156 -27.041970 62.365541
14.752445 -26.195594 62.430751
12.750897 -26.382966 62.470647
11.026406 -25.674863 62.532472
9.067638 -25.723962 62.575753
7.385928 -24.877586 62.640964
5.384379 -25.064958 62.680860
3.702669 -24.218582 62.746070
1.935396 -23.648751 62.804509
0.339248 -22.525830 62.876491
-1.384384 -21.814948 62.938384
-3.157353 -21.263531 62.996371
-4.930323 -20.712115 63.054359
-6.690909 -20.154159 63.112269
-7.573303 -18.520946 63.184025
-9.120113 -17.238559 63.259913
-10.666923 -15.956172 63.335800
-12.213734 -14.673785 63.411688
-13.309425 -13.764750 63.465464
-14.179913 -12.125250 63.537146
-15.595647 -10.773651 63.612218
-16.596734 -9.203110 63.684712
-17.881869 -7.782553 63.758973
-18.067840 -5.781612 63.826398
-18.529964 -3.926486 63.895541
-19.396923 -2.285122 63.967201
-19.582894 -0.284181 64.034626
-19.768865 1.716760 64.102052
-19.954837 3.717701 64.169477
-20.140808 5.718643 64.236903
-20.284392 7.706503 64.302945
-19.478989 9.401508 64.338022
-19.178738 11.252402 64.389582
-17.894931 12.799774 64.409048
-17.342105 14.572723 64.452366
-16.789278 16.345673 64.495685
-15.505471 17.893044 64.515151
-14.952644 19.665994 64.558469
-13.311875 20.536983 64.548413
-12.028068 22.084354 64.567879
-10.744261 23.631725 64.587345
-9.239392 24.760220 64.588528
-7.977409 26.098758 64.601901
-6.909896 27.146652 64.610550
-5.332329 28.137396 64.605720
-3.628359 28.888629 64.590436
-1.987590 29.759618 64.580379
-0.337323 30.612610 64.569537
1.293948 31.501596 64.560266
3.160953 31.943904 64.531498
4.657682 33.087825 64.533354
6.216254 34.114562 64.530095
8.155958 34.419118 64.495314
10.157507 34.606490 64.455418
11.654235 35.750411 64.457275
13.655784 35.937784 64.417379
15.657332 36.125156 64.377483
17.658881 36.312528 64.337587
19.660429 36.499900 64.297691
21.661978 36.687272 64.257796
23.663526 36.874644 64.217900
25.665075 37.062016 64.178004
27.666623 37.249389 64.138108
29.668172 37.436761 64.098212
31.544976 37.220946 64.048443
33.351431 36.777757 63.993106
35.317075 36.849084 63.950368
37.034690 36.118753 63.888000
39.036238 36.306125 63.848104
40.717948 35.459749 63.782893
42.635115 35.374388 63.736319
44.401207 34.800745 63.677787
46.082918 33.954368 63.612577
47.764628 33.107992 63.547366
49.500834 32.437752 63.486469
51.273804 31.886336 63.428481
52.820614 30.603949 63.352594
54.593584 30.052533 63.294606
56.173180 28.876111 63.221314
57.913364 28.218729 63.160731
59.460174 26.936342 63.084844
60.374575 25.320029 63.012889
61.876994 24.014203 62.937277
63.423805 22.731816 62.861389
64.761048 21.338773 62.786805
65.840625 19.809676 62.713823
66.710635 18.169923 62.642144
67.233241 16.346733 62.572625
68.376352 14.851184 62.499248
68.562323 12.850243 62.431822
68.748295 10.849302 62.364397
69.707085 9.256427 62.292166
70.077377 7.352812 62.223594
69.229587 5.670887 62.189901
69.415558 3.669946 62.122475
68.610154 1.974941 62.087398
68.753739 -0.012920 62.021356
68.939710 -2.013861 61.953931
67.682653 -3.569487 61.933591
66.398846 -5.116858 61.914125
65.846019 -6.889808 61.870807
64.562212 -8.437179 61.851340
63.278405 -9.984550 61.831874
61.994599 -11.531921 61.812408
60.600008 -12.869376 61.802104
59.070023 -13.950281 61.802998
57.786216 -15.497652 61.783532
56.145447 -16.368640 61.793589
54.861640 -17.916012 61.774122
53.220871 -18.787000 61.784179
51.937064 -20.334371 61.764713
50.122910 -20.876824 61.789110
48.298565 -21.399967 61.814350
46.624633 -22.208117 61.827149
45.017027 -23.141944 61.834463
43.126356 -23.539411 61.865189
41.378528 -24.207539 61.884100
39.628080 -24.870704 61.903228
37.626531 -25.058076 61.943124
35.624983 -25.245448 61.983020
34.101529 -26.338729 61.983374
32.126706 -26.576742 62.021059
30.125157 -26.764114 62.060955
28.123609 -26.951486 62.100851
26.122060 -27.138858 62.140747
24.120512 -27.326230 62.180643
22.118963 -27.513602 62.220539
-24.937139 -51.844740 -32.707294
-26.612990 -51.016035 -32.519856
-28.596085 -51.224989 -32.311549
-30.579181 -51.433943 -32.103242
-32.255031 -50.605238 -31.915803
-34.238127 -50.814192 -31.707496
-35.960273 -50.141842 -31.516913
-37.897073 -50.194441 -31.311751
-39.880168 -50.403396 -31.103444
-41.556019 -49.574690 -30.916005
-43.539114 -49.783644 -30.707698
-45.218636 -48.967339 -30.520010
-47.198060 -49.163893 -30.311952
-48.873910 -48.335188 -30.124514
-50.549761 -47.506483 -29.937075
-52.494974 -47.587495 -29.731341
-54.208707 -46.886731 -29.541329
-56.191802 -47.095686 -29.333022
-57.119887 -45.637336 -29.217881
-58.884657 -45.108941 -29.024402
-60.639945 -44.548519 -28.831568
-62.196944 -43.318414 -28.652202
-63.961714 -42.790019 -28.458724
-65.509230 -41.527888 -28.280002
-67.274000 -40.999493 -28.086524
-68.821516 -39.737361 -27.907802
-70.586287 -39.208966 -27.714324
-72.133802 -37.946835 -27.535601
-73.898573 -37.418440 -27.342123
-75.480766 -36.790499 -27.166912
-75.872062 -34.897964 -27.103871
-77.608238 -34.272997 -26.912335
-78.877031 -32.939880 -26.762418
-80.062465 -31.480332 -26.619923
-81.749135 -30.688170 -26.431749
-82.705352 -29.324831 -26.314697
-83.583469 -27.697725 -26.202949
-84.577485 -26.133811 -26.079605
-86.099821 -25.114876 -25.906317
-86.821655 -23.760918 -25.814271
-87.313192 -21.923038 -25.741200
-88.191309 -20.295932 -25.629452
-89.331266 -18.811589 -25.491507
-89.947543 -17.041721 -25.405956
-90.688783 -15.339986 -25.307903
-91.703777 -13.787509 -25.182460
-92.046300 -11.868382 -25.124299
-92.251722 -9.874505 -25.079855
-92.457144 -7.880627 -25.035411
-92.662566 -5.886750 -24.990967
-92.867988 -3.892872 -24.946522
-93.073410 -1.898994 -24.902078
-92.673664 -0.085637 -24.923973
-92.452701 1.781050 -24.926270
-91.626571 3.467217 -24.994905
-91.831993 5.461095 -24.950461
-91.292732 7.232834 -24.987650
-91.211285 9.141139 -24.974652
-90.385155 10.827306 -25.043288
-89.347816 11.885814 -25.141482
-88.672875 13.617081 -25.193545
-87.563224 15.218674 -25.293260
-87.020615 16.989415 -25.330816
-85.778631 18.551533 -25.445038
-85.192799 20.218568 -25.488362
-83.631885 21.211707 -25.642921
-82.624523 22.843813 -25.731423
-81.485139 23.871881 -25.840804
-80.228134 25.429518 -25.956672
-78.608976 26.314471 -26.118647
-78.038181 28.009437 -26.160056
-76.462229 28.974644 -26.316530
-75.205224 30.532282 -26.432398
-73.948219 32.089919 -26.548267
-72.329061 32.974872 -26.710241
-70.709902 33.859824 -26.872215
-69.452897 35.417461 -26.988084
-67.741650 36.131362 -27.161782
-66.214580 37.187365 -27.312032
-64.595422 38.072318 -27.474006
-62.976263 38.957270 -27.635981
-61.357105 39.842222 -27.797955
-59.874822 40.981416 -27.942503
-58.118787 41.612126 -28.121903
-56.499629 42.497078 -28.283878
-54.949861 43.510921 -28.437018
-52.966765 43.719875 -28.645325
-51.280000 44.479250 -28.815906
-49.512737 45.089104 -28.996735
-48.041682 46.249154 -29.139854
-46.058708 46.458334 -29.348146
-44.075613 46.667288 -29.556453
-42.459900 47.558640 -29.717988
-40.621584 48.036517 -29.907863
-38.638489 48.245472 -30.116170
-37.167556 49.405747 -30.259274
-35.184460 49.614701 -30.467581
-33.201365 49.823656 -30.675888
-31.218269 50.032610 -30.884195
-29.235174 50.241564 -31.092502
-27.252078 50.450519 -31.300809
-25.268983 50.659473 -31.509116
-23.285887 50.868427 -31.717423
-21.302792 51.077382 -31.925730
-19.372946 51.106495 -32.130420
-17.643846 50.457631 -32.321475
-15.660750 50.666585 -32.529782
-13.677655 50.875539 -32.738089
-11.879353 50.460388 -32.933845
-10.018709 50.255788 -33.133835
-8.035613 50.464743 -33.342142
-6.150532 50.342675 -33.543792
-4.385761 49.814280 -33.737270
-2.700817 49.016286 -33.925326
-0.717721 49.225241 -34.133633
1.125806 48.962831 -34.332461
2.890577 48.434436 -34.525939
4.617075 47.776784 -34.716818
6.600171 47.985739 -34.925125
8.276021 47.157033 -35.112563
9.951871 46.328328 -35.300002
11.714430 45.792461 -35.493330
13.479200 45.264065 -35.686808
15.243971 44.735670 -35.880286
16.962518 44.051166 -36.070625
18.556257 42.945144 -36.252486
20.314219 42.393755 -36.445502
21.868543 41.154618 -36.624687
23.633314 40.626223 -36.818165
25.341771 39.907639 -37.007818
26.276201 38.470722 -37.123391
27.823717 37.208590 -37.302113
29.588487 36.680195 -37.495591
31.136003 35.418064 -37.674313
32.683519 34.155932 -37.853035
34.231034 32.893801 -38.031757
35.778550 31.631670 -38.210479
36.656667 30.004564 -38.322227
38.204182 28.742433 -38.500950
39.082299 27.115327 -38.612698
40.629815 25.853195 -38.791420
42.116711 25.173296 -38.957096
42.603304 23.332720 -39.029672
43.481420 21.705614 -39.141420
45.028936 20.443483 -39.320142
45.778417 18.746241 -39.419020
45.983839 16.752363 -39.463464
46.993888 15.197191 -39.588412
47.341356 13.280760 -39.647068
48.493450 11.803034 -39.786228
48.415595 9.893658 -39.799619
47.872742 8.122990 -39.762036
48.078164 6.129112 -39.806480
48.283586 4.135235 -39.850925
48.489008 2.141357 -39.895369
48.694430 0.147479 -39.939813
48.167740 -1.628010 -39.904002
48.073722 -3.532565 -39.915622
47.247591 -5.218732 -39.846986
47.314396 -7.171260 -39.876235
46.626883 -8.898777 -39.822795
45.800753 -10.584943 -39.754159
45.002216 -12.279341 -39.688548
44.474628 -14.054563 -39.652639
43.947041 -15.829785 -39.616730
42.690036 -17.387422 -39.500862
41.670102 -19.015778 -39.410981
40.905443 -20.720281 -39.349084
39.286285 -21.605234 -39.187110
38.573506 -23.036471 -39.127624
37.139539 -24.265408 -38.989227
35.882534 -25.823045 -38.873358
35.252278 -27.407566 -38.824378
33.373634 -27.810534 -38.629369
32.116629 -29.368171 -38.513501
30.839479 -30.888391 -38.395068
29.240466 -31.810761 -38.235658
27.983461 -33.368398 -38.119789
26.426680 -34.369216 -37.965757
24.955747 -35.529491 -37.822653
23.484814 -36.689766 -37.679549
21.868980 -37.580892 -37.517998
20.249821 -38.465844 -37.356024
18.559853 -39.219270 -37.185035
17.011504 -40.235749 -37.032076
15.392346 -41.120701 -36.870102
13.634891 -41.748774 -36.690521
12.154028 -42.890605 -36.546153
10.180863 -43.118004 -36.339110
8.709930 -44.278279 -36.196007
6.726834 -44.487233 -35.987700
5.255901 -45.647508 -35.844596
3.272806 -45.856463 -35.636289
1.714770 -46.854948 -35.482096
-0.181223 -47.225692 -35.284878
-2.164318 -47.434646 -35.076571
-3.635251 -48.594921 -34.933468
-5.618347 -48.803876 -34.725161
-7.601442 -49.012830 -34.516854
-9.448796 -49.473920 -34.325828
-11.055471 -50.382059 -34.165443
-13.038566 -50.591014 -33.957136
-15.021662 -50.799968 -33.748829
-17.004757 -51.008922 -33.540522
-18.987853 -51.217877 -33.332215
-20.970948 -51.426831 -33.123908
-22.954044 -51.635786 -32.915601
