ply
format ascii 1.0
element vertex 1510
property float x
property float y
property float z
end_header
-145.808841 -58.350804 37.466701
-146.800481 -56.764933 37.631723
-147.177261 -54.923040 37.754311
-147.879236 -53.216555 37.899342
-148.778195 -51.592092 38.057968
-149.283187 -49.803585 38.189404
-149.764269 -48.005122 38.319191
-149.758702 -46.004023 38.415392
-150.683980 -44.390520 38.575834
-150.744776 -42.417053 38.676615
-151.736416 -40.831182 38.841637
-151.730849 -38.830083 38.937838
-152.081617 -36.977359 39.058631
-152.716923 -35.243113 39.199061
-152.711356 -33.242015 39.295262
-153.482410 -31.564293 39.445060
-153.697430 -29.655045 39.556485
-153.691863 -27.653946 39.652686
-153.686296 -25.652847 39.748888
-153.680729 -23.651748 39.845089
-153.675162 -21.650649 39.941290
-153.669595 -19.649550 40.037492
-153.664028 -17.648451 40.133693
-153.658461 -15.647352 40.229894
-153.652895 -13.646253 40.326096
-153.647328 -11.645154 40.422297
-153.641761 -9.644055 40.518498
-153.636194 -7.642956 40.614700
-153.115943 -5.855117 40.654720
-152.630155 -4.052999 40.698502
-152.624588 -2.051900 40.794703
-152.619021 -0.050801 40.890905
-152.380553 1.853795 40.961683
-151.612982 3.539157 40.974707
-151.607415 5.540255 41.070908
-150.606943 7.129114 41.058510
-150.601376 9.130213 41.154711
-150.595809 11.131312 41.250912
-150.222213 12.979917 41.306941
-148.807233 14.397024 41.249296
-148.589298 16.310128 41.322316
-148.583731 18.311227 41.418517
-147.376310 19.814336 41.383528
-146.582786 21.488944 41.393719
-145.953359 23.231545 41.421822
-145.576747 25.078901 41.477522
-144.576275 26.667760 41.465123
-143.818932 28.357360 41.479263
-143.570236 30.257717 41.548925
-142.395981 31.774569 41.517557
-141.569291 33.435434 41.524127
-140.973030 35.191778 41.555851
-140.261554 36.900383 41.574998
-139.562780 38.614250 41.595531
-138.838603 40.317592 41.613291
-137.561835 41.791967 41.570733
-137.415652 43.734802 41.651585
-136.000672 45.151908 41.593940
-135.289196 46.860513 41.613087
-134.554852 48.559642 41.629738
-133.554379 50.148500 41.617339
-132.451265 51.694829 41.593736
-131.553435 53.326218 41.592541
-130.324810 54.820541 41.555238
-128.909830 56.237647 41.497593
-128.052680 57.591408 41.486608
-126.558268 58.684303 41.406217
-126.485629 60.657610 41.495097
-125.552229 62.274260 41.490019
-124.279849 63.590097 41.440191
-122.654421 64.494578 41.339016
-122.552440 66.455727 41.424694
-120.941696 67.205936 41.317373
-120.097217 68.590561 41.309010
-118.559373 69.639846 41.222639
-117.813992 71.334401 41.238085
-116.558429 72.817563 41.197842
-115.331108 73.591901 41.125863
-113.693009 74.465518 41.022068
-112.981534 76.174123 41.041215
-111.566554 77.591229 40.983570
-110.151574 79.008336 40.925925
-109.389086 80.592681 40.934520
-107.735345 81.428196 40.827490
-106.801131 82.594238 40.800566
-105.319116 83.848057 40.729055
-103.904136 85.265164 40.671410
-102.489156 86.682270 40.613765
-101.074176 88.099377 40.556120
-99.659196 89.516484 40.498475
-97.954443 90.227740 40.380893
-97.104201 91.598326 40.371337
-95.538214 92.647600 40.282458
-94.123234 94.064707 40.224813
-92.418481 94.775963 40.107231
-91.003501 96.193069 40.049586
-89.588521 97.610176 39.991941
-87.999708 98.603849 39.898340
-86.601818 99.793660 39.831235
-85.411754 100.605406 39.764385
-83.762786 101.452548 39.658342
-82.823799 102.606964 39.630430
-81.238083 103.608181 39.537470
-79.641803 104.583665 39.442325
-78.066652 105.610614 39.351550
-76.522070 106.712027 39.267098
-75.107090 108.129134 39.209453
-73.309505 108.614263 39.072669
-71.697584 109.551646 38.974289
-70.721550 110.615821 38.938714
-69.135834 111.617037 38.845754
-67.286828 111.976911 38.698335
-66.547880 113.618595 38.711799
-64.870599 114.396772 38.599900
-62.966647 114.622804 38.441115
-61.380931 115.624021 38.348155
-59.756340 116.530539 38.247154
-58.792977 117.625578 38.214200
-57.050337 118.244549 38.088782
-55.345584 118.955805 37.971200
-53.626028 119.631004 37.850556
-51.936078 120.378317 37.736036
-50.521098 121.795423 37.678391
-48.868882 122.634653 37.571676
-47.283166 123.635870 37.478716
-45.406838 123.929191 37.325645
-43.701933 124.640079 37.208032
-41.997331 125.351703 37.090481
-40.292578 126.062958 36.972899
-38.534985 126.645504 36.844388
-36.883071 127.485470 36.737736
-35.178318 128.196726 36.620154
-33.368037 128.650930 36.480744
-31.768812 129.619238 36.384990
-30.064058 130.330494 36.267408
-28.201089 130.656355 36.117100
-26.615373 131.657571 36.024140
-24.949799 132.464261 35.914662
-24.750352 134.385026 35.989700
-24.744785 136.386125 36.085901
-24.222380 138.173071 36.125687
-23.738746 139.976082 36.169704
-23.733179 141.977181 36.265905
-22.791458 143.590383 36.259919
-22.727140 145.567138 36.349707
-21.726667 147.155997 36.337309
-21.360535 149.007695 36.394152
-19.945555 150.424802 36.336507
-19.720156 152.334813 36.408712
-18.719684 153.923671 36.396313
-17.811129 155.550616 36.393948
-17.713644 157.513629 36.480116
-16.388177 158.967825 36.432241
-15.712700 160.691346 36.455318
-14.965226 162.385035 36.470535
-13.711755 163.869063 36.430520
-12.838771 165.510746 36.432037
-12.127295 167.219351 36.451184
-10.712315 168.636458 36.393539
-10.000839 170.345062 36.412686
-8.709394 171.813356 36.368525
-7.874384 173.470774 36.374188
-6.169631 174.182029 36.256606
-5.458155 175.890634 36.275753
-4.043175 177.307741 36.218108
-3.176429 178.638127 36.205138
-1.626946 179.727601 36.119673
-0.211966 181.144708 36.062028
1.203014 182.561815 36.004383
2.617994 183.978922 35.946738
4.032974 185.396028 35.889093
5.737727 186.107284 35.771511
7.152707 187.524391 35.713866
8.567687 188.941497 35.656220
9.982667 190.358604 35.598575
11.861124 190.646739 35.445064
13.392173 191.781116 35.363412
14.807153 193.198223 35.305766
16.618271 193.650388 35.166184
18.216660 194.620734 35.070603
19.921413 195.331990 34.953021
20.791941 196.653163 34.939269
22.627415 197.046000 34.794649
24.332169 197.757256 34.677067
25.958890 198.658588 34.575625
27.741675 199.179767 34.441903
29.446428 199.891023 34.324321
31.125838 200.664014 34.211981
32.855935 201.313535 34.089157
34.707070 201.668223 33.941297
36.702587 201.671215 33.763573
38.288303 202.672432 33.670613
39.964721 203.452708 33.558892
41.869535 203.676641 33.399930
43.865052 203.679633 33.222206
45.658528 204.174773 33.086273
47.446285 204.683842 32.951522
49.441802 204.686835 32.773798
51.437319 204.689827 32.596075
53.432836 204.692820 32.418351
55.428353 204.695813 32.240627
57.423870 204.698805 32.062903
59.419387 204.701798 31.885180
61.414904 204.704790 31.707456
63.410421 204.707783 31.529732
65.405938 204.710776 31.352009
67.401455 204.713768 31.174285
69.008097 203.781028 30.986006
70.977130 203.720292 30.807564
72.972647 203.723285 30.629840
74.968164 203.726277 30.452116
76.692447 203.076611 30.267031
78.543839 202.732801 30.085395
80.539356 202.735794 29.907672
82.119514 201.739325 29.718674
84.083094 201.665468 29.540084
85.695189 200.745849 29.351953
87.484714 200.253170 29.168638
88.891821 198.840296 28.974944
90.851023 198.755904 28.796235
92.431181 197.759435 28.607238
94.011339 196.762967 28.418240
95.988765 196.722427 28.240025
97.395872 195.309552 28.046331
99.167173 194.773022 27.862522
100.797492 193.897255 27.674886
102.498303 193.191106 27.489163
103.907647 191.783616 27.295530
105.892142 191.775569 27.118255
106.601898 190.072324 26.972687
108.302708 189.366175 26.786965
109.709816 187.953301 26.593270
111.224962 186.800397 26.402508
112.112601 185.540667 26.262517
113.801802 184.806584 26.076479
115.220518 183.421644 25.883100
116.627625 182.008769 25.689406
118.034733 180.595895 25.495711
119.441840 179.183020 25.302017
120.871876 177.825318 25.108945
121.844625 176.770387 24.971264
123.251732 175.357512 24.777569
123.953708 173.651027 24.632538
125.360815 172.238153 24.438844
126.767922 170.825278 24.245150
128.175029 169.412403 24.051456
128.734217 167.646463 23.916279
129.578979 165.999433 23.761394
130.986087 164.586559 23.567700
131.709138 162.888850 23.421214
132.390037 161.173589 23.277638
133.092012 159.467104 23.132607
134.685688 158.716345 22.954278
135.494797 157.054470 22.801853
135.671761 155.129375 22.693055
136.663402 153.543504 22.528033
136.895591 151.641405 22.415424
137.649475 149.956534 22.266810
138.641116 148.370663 22.101789
139.001516 146.521950 21.980331
139.627189 144.783693 21.840566
139.621622 142.782594 21.744364
140.402310 141.108884 21.593901
141.104285 139.402399 21.448870
141.599336 137.609753 21.318120
141.593769 135.608654 21.221918
141.799946 133.695723 21.111104
142.579843 132.021684 20.960695
142.574276 130.020585 20.864494
142.568709 128.019486 20.768293
142.563142 126.018388 20.672092
142.557575 124.017289 20.575890
142.552009 122.016190 20.479689
142.546442 120.015091 20.383488
142.540875 118.013992 20.287286
142.535308 116.012893 20.191085
142.529741 114.011794 20.094884
142.524174 112.010695 19.998682
142.518607 110.009596 19.902481
142.513040 108.008497 19.806280
144.023786 106.942511 19.620110
144.866823 105.575459 19.478908
146.273931 104.162585 19.285214
147.681038 102.749710 19.091519
149.345584 101.956300 18.904813
150.083823 100.337077 18.760766
151.452194 98.908072 18.569745
152.192905 97.217717 18.422041
153.600013 95.804842 18.228346
154.427115 94.150459 18.074680
155.830028 92.976479 17.892904
156.412024 91.563826 17.772765
157.408033 89.982330 17.607566
158.402426 88.979480 17.470472
159.388573 87.391321 17.305829
159.806377 85.566510 17.180410
161.373481 84.804687 17.003915
162.209162 83.153876 16.849656
162.359555 81.217717 16.742692
163.613112 79.740906 16.559594
165.020219 78.328031 16.365900
165.722195 76.621546 16.220869
166.326117 74.874233 16.082605
167.126145 73.208576 15.930807
167.312190 71.287263 15.821382
168.303831 69.701392 15.656361
169.232070 68.089121 15.495714
169.289904 66.114422 15.395138
170.281545 64.528551 15.230116
170.275978 62.527452 15.133915
170.629707 60.675961 15.012917
171.262051 58.940482 14.872692
171.256485 56.939383 14.776490
172.030500 55.262895 14.626488
172.242558 53.352413 14.515267
173.234199 51.766542 14.350246
173.228632 49.765443 14.254044
173.223065 47.764344 14.157843
173.217498 45.763245 14.061642
173.211931 43.762146 13.965441
173.206364 41.761047 13.869239
173.415509 39.849352 13.758220
174.192438 38.174077 13.608016
174.186871 36.172979 13.511815
174.181304 34.171880 13.415614
174.175737 32.170781 13.319412
174.170170 30.169682 13.223211
174.164603 28.168583 13.127010
173.515887 26.433974 13.101012
173.158564 24.578625 13.043207
173.152997 22.577526 12.947006
173.147431 20.576427 12.850805
172.780497 18.725061 12.794049
172.141391 16.986470 12.767002
172.135825 14.985371 12.670801
172.053079 13.016251 12.583024
171.129785 11.395414 12.586998
171.124219 9.394315 12.490797
170.622157 7.598939 12.448791
170.118179 5.804357 12.406995
169.199205 4.181730 12.410498
169.112140 2.214400 12.323192
169.106573 0.213301 12.226991
167.768283 -1.235582 12.276265
167.105629 -2.964416 12.251789
166.345332 -4.652792 12.237971
166.099590 -6.554374 12.167986
165.625885 -8.361499 12.122885
164.210905 -9.778606 12.180530
164.093078 -11.733190 12.096583
162.787954 -13.195815 12.142236
162.092134 -14.910907 12.121381
161.365002 -16.613024 12.103943
160.653527 -18.321629 12.084796
160.085622 -20.089723 12.049977
159.230576 -21.738839 12.046502
158.084678 -23.267440 12.074775
157.807624 -25.156048 12.008208
157.078639 -26.857397 11.990972
155.681169 -28.281759 12.046706
154.969693 -29.990364 12.027559
154.077222 -31.623973 12.028169
153.330530 -32.880909 12.033987
152.077905 -34.216582 12.081096
151.735853 -35.879816 12.031213
150.129264 -36.830188 12.128490
149.417789 -38.538792 12.109344
148.077644 -39.986907 12.158820
147.291333 -41.664504 12.147842
146.076699 -43.164624 12.183618
145.164877 -44.790215 12.186340
143.460124 -45.501471 12.303922
143.076910 -47.346091 12.248943
141.747400 -48.212830 12.325565
141.018760 -49.879626 12.309968
139.331171 -50.632690 12.424000
139.078277 -52.531309 12.354796
137.618446 -53.344049 12.445643
136.906971 -55.052653 12.426496
135.250413 -55.881307 12.534109
134.084738 -57.304286 12.569249
133.075762 -58.889621 12.582576
132.083793 -60.482003 12.594047
130.659533 -61.309481 12.681011
129.891866 -62.881212 12.673487
128.243304 -63.729342 12.779446
127.303911 -64.882769 12.807442
125.537302 -65.443351 12.937818
124.825826 -67.151956 12.918671
123.410846 -68.569063 12.976316
121.706093 -69.280319 13.093898
120.994617 -70.988923 13.074751
119.366372 -71.886542 13.176508
117.874884 -73.117286 13.249978
116.459904 -74.534393 13.307623
115.044924 -75.951499 13.365268
113.433311 -76.889631 13.463585
111.925191 -78.079862 13.540495
110.261879 -78.892064 13.649506
109.119354 -80.338288 13.681459
107.804209 -81.210978 13.756512
107.081487 -82.892187 13.739692
105.098207 -82.924988 13.914884
103.500254 -83.896396 14.010376
102.133693 -85.117666 14.073168
100.912299 -85.897954 14.144331
99.272471 -86.767360 14.248483
98.324344 -87.899512 14.278286
96.856242 -89.187221 14.346918
95.441262 -90.604327 14.404563
93.567197 -90.903161 14.557166
91.981482 -91.904378 14.650126
90.327003 -92.738095 14.757309
89.393527 -93.905936 14.784081
87.621000 -94.452105 14.915681
85.916247 -95.163360 15.033263
85.168149 -96.856790 15.018114
83.224339 -96.911703 15.188720
81.638624 -97.912919 15.281680
80.090512 -99.005733 15.366862
78.675532 -100.422839 15.424507
76.881477 -100.916568 15.560560
75.266025 -101.845351 15.659671
73.561272 -102.556607 15.777253
71.714529 -102.921994 15.924204
70.207488 -104.002207 16.006334
69.150516 -104.981872 16.053207
67.540858 -105.924768 16.151119
65.741010 -106.404384 16.288371
64.036257 -107.115640 16.405953
62.373910 -107.930194 16.514763
60.626750 -108.538152 16.641117
58.921997 -109.249408 16.758699
57.206962 -109.935619 16.878407
55.512490 -110.671919 16.993863
53.807737 -111.383175 17.111445
52.040014 -111.941044 17.242051
50.398230 -112.805687 17.346608
48.693477 -113.516943 17.464190
46.873066 -113.946470 17.605695
45.283971 -114.939454 17.699354
43.291833 -114.950679 17.876379
41.296316 -114.953672 18.054103
39.710600 -115.954888 18.147063
37.885411 -116.372776 18.289556
36.180658 -117.084032 18.407138
34.543652 -117.960313 18.510707
32.548135 -117.963306 18.688431
30.552618 -117.966299 18.866154
28.966903 -118.967515 18.959114
27.367118 -119.934460 19.054985
25.385670 -119.971724 19.229798
23.390153 -119.974717 19.407522
21.804438 -120.975933 19.500482
19.808921 -120.978926 19.678206
17.813404 -120.981918 19.855929
16.227688 -121.983135 19.948890
14.232171 -121.986127 20.126613
12.236654 -121.989120 20.304337
10.241137 -121.992112 20.482061
8.580945 -122.811914 20.590426
6.659905 -122.996322 20.752745
4.664388 -122.999314 20.930468
3.078672 -124.000531 21.023428
1.083155 -124.003523 21.201152
-0.912362 -124.006516 21.378876
-2.907879 -124.009508 21.556600
-4.511421 -124.967301 21.653247
-6.489111 -125.013717 21.827283
-8.484628 -125.016710 22.005007
-10.480145 -125.019702 22.182731
-12.475662 -125.022695 22.360455
-14.471179 -125.025688 22.538178
-16.466696 -125.028680 22.715902
-18.462213 -125.031673 22.893626
-20.457730 -125.034665 23.071349
-22.453247 -125.037658 23.249073
-24.448764 -125.040651 23.426797
-26.444281 -125.043643 23.604521
-28.439798 -125.046636 23.782244
-30.435315 -125.049628 23.959968
-32.430832 -125.052621 24.137692
-34.426349 -125.055614 24.315415
-36.421866 -125.058606 24.493139
-38.417383 -125.061599 24.670863
-71.017069 -166.099843 68.390515
-72.611923 -165.126433 68.568268
-74.605135 -165.159371 68.758157
-76.598348 -165.192309 68.948046
-78.423729 -164.801265 69.132822
-80.186414 -164.251838 69.315688
-82.179627 -164.284776 69.505577
-83.837882 -163.471534 69.685261
-85.767693 -163.344304 69.873219
-87.362547 -162.370894 70.050971
-89.355760 -162.403833 70.240860
-90.962860 -161.461360 70.418986
-92.943826 -161.463361 70.608502
-94.538680 -160.489951 70.786255
-96.133533 -159.516542 70.964007
-97.806155 -158.739592 71.144129
-99.516978 -158.059150 71.325415
-101.227802 -157.378707 71.506700
-102.911307 -156.629251 71.687154
-104.506160 -155.655841 71.864906
-106.101014 -154.682432 72.042659
-107.789415 -153.945344 72.223261
-109.500238 -153.264901 72.404547
-110.929380 -151.872864 72.577251
-112.640203 -151.192422 72.758537
-114.069345 -149.800384 72.931241
-115.670136 -148.841974 73.109174
-117.209310 -147.727905 73.285230
-118.638451 -146.335868 73.457934
-120.067592 -144.943830 73.630638
-121.496734 -143.551793 73.803341
-122.925875 -142.159755 73.976045
-124.355016 -140.767718 74.148749
-125.784158 -139.375681 74.321453
-127.213299 -137.983643 74.494157
-128.642440 -136.591606 74.666860
-130.071582 -135.199568 74.839564
-130.800979 -133.503143 74.953166
-132.230121 -132.111106 75.125870
-133.239170 -130.536329 75.263091
-134.388659 -129.022643 75.412175
-135.274141 -127.394115 75.538960
-136.291627 -125.823008 75.676894
-137.276596 -124.237756 75.812081
-138.005993 -122.541331 75.925683
-138.735390 -120.844906 76.039284
-139.464788 -119.148481 76.152886
-140.389468 -117.537003 76.282981
-141.406954 -115.965896 76.420916
-142.352724 -114.363593 76.552793
-143.082122 -112.667168 76.666394
-143.469823 -110.822106 76.751135
-144.487309 -109.250999 76.889069
-144.515207 -107.249423 76.943420
-145.299967 -105.577080 77.061697
-145.560591 -103.676739 77.135705
-146.578077 -102.105632 77.273639
-146.605975 -100.104056 77.327990
-146.818069 -98.182605 77.397899
-147.651359 -96.531373 77.520275
-147.679258 -94.529797 77.574626
-147.707156 -92.528220 77.628977
-148.336171 -90.788129 77.734100
-148.752540 -88.955537 77.821262
-148.780439 -86.953961 77.875613
-148.808337 -84.952385 77.929964
-148.836235 -82.950809 77.984314
-148.864134 -80.949232 78.038665
-148.892032 -78.947656 78.093016
-148.919930 -76.946080 78.147367
-148.947829 -74.944504 78.201718
-147.974598 -73.340500 78.150001
-148.002497 -71.338924 78.204352
-148.030395 -69.337347 78.258702
-148.015305 -67.352843 78.308499
-147.085063 -65.731767 78.261336
-147.112961 -63.730191 78.315687
-146.677864 -61.912482 78.320984
-146.167629 -60.124611 78.318321
-145.314299 -58.472992 78.279307
-145.222297 -56.519031 78.320954
-144.658640 -54.752376 78.312631
-143.976857 -53.032631 78.291792
-143.303735 -51.309447 78.271871
-142.613293 -49.593141 78.250115
-141.931511 -47.873396 78.229276
-141.385173 -46.099863 78.222787
-140.567946 -44.433906 78.187599
-139.886164 -42.714161 78.166760
-139.466610 -40.890279 78.173704
-139.494509 -38.888703 78.228055
-139.522407 -36.887127 78.282406
-140.514520 -35.304983 78.418197
-141.243918 -33.608558 78.531798
-141.973315 -31.912133 78.645400
-142.602763 -30.172229 78.750559
-143.432110 -28.519283 78.872603
-143.648147 -26.599546 78.942844
-144.191161 -24.822045 79.040703
-144.693531 -23.026863 79.135129
-145.649956 -21.429195 79.267906
-145.738915 -19.454180 79.327414
-146.409007 -17.731957 79.436007
-146.784299 -15.881496 79.519699
-146.812197 -13.879920 79.574050
-147.197712 -12.033906 79.658606
-147.857581 -10.307237 79.766335
-147.885479 -8.305661 79.820686
-147.913378 -6.304084 79.875037
-148.715814 -4.639431 79.994807
-148.958762 -2.731401 80.067322
-148.986660 -0.729825 80.121673
-149.014558 1.271751 80.176024
-149.042457 3.273328 80.230375
-149.070355 5.274904 80.284725
-149.098253 7.276480 80.339076
-149.126152 9.278056 80.393427
-149.154050 11.279632 80.447778
-148.180820 12.883636 80.396061
-148.208718 14.885213 80.450412
-148.236617 16.886789 80.504763
-148.046084 18.801621 80.535971
-147.291285 20.492369 80.507396
-147.319183 22.493945 80.561747
-147.347081 24.495521 80.616098
-146.373851 26.099525 80.564381
-146.401749 28.101101 80.618732
-145.428519 29.705105 80.567015
-145.397323 31.683213 80.615104
-144.483187 33.310685 80.569648
-144.033758 35.122703 80.573427
-143.537855 36.916265 80.572282
-142.670194 38.562193 80.531750
-142.592523 40.521845 80.574916
-141.619293 42.125849 80.523199
-140.646062 43.729853 80.471481
-140.650970 45.722299 80.523396
-139.700730 47.335433 80.474115
-138.727500 48.939437 80.422398
-137.897719 50.600408 80.385879
-137.215936 52.320153 80.365040
-135.826249 53.758772 80.269200
-135.144467 55.478517 80.248362
-134.462685 57.198261 80.227523
-133.072998 58.636880 80.131683
-132.391216 60.356625 80.110844
-131.001528 61.795244 80.015004
-130.319746 63.514989 79.994165
-128.995197 64.979475 79.905226
-128.248277 66.673353 79.877487
-126.858590 68.111972 79.781646
-126.075506 69.791487 79.750075
-124.787121 71.270335 79.664968
-123.397433 72.708954 79.569128
-122.007746 74.147573 79.473288
-120.618059 75.586192 79.377447
-119.820497 77.036272 79.338566
-118.245205 78.042596 79.213803
-116.855518 79.481214 79.117963
-115.465831 80.919833 79.022123
-114.076144 82.358452 78.926283
-112.686457 83.797071 78.830443
-111.296770 85.235690 78.734603
-109.907083 86.674309 78.638763
-108.517395 88.112927 78.542922
-107.127708 89.551546 78.447082
-105.738021 90.990165 78.351242
-104.288495 92.289411 78.246077
-102.657262 93.165443 78.112596
-101.267575 94.604062 78.016756
-99.877888 96.042680 77.920916
-98.186816 96.779339 77.778111
-96.797129 98.217958 77.682270
-95.106057 98.954617 77.539465
-93.414985 99.691276 77.396659
-92.025298 101.129894 77.300819
-90.334226 101.866553 77.158013
-88.944539 103.305172 77.062173
-87.253467 104.041831 76.919367
-85.562395 104.778490 76.776562
-84.172708 106.217109 76.680722
-82.481636 106.953767 76.537916
-80.790564 107.690426 76.395110
-79.400877 109.129045 76.299270
-77.709805 109.865704 76.156464
-76.082671 110.751281 76.023622
-74.515681 111.776940 75.900152
-72.937975 112.777640 75.775013
-71.246903 113.514299 75.632207
-69.555831 114.250958 75.489401
-67.864759 114.987617 75.346595
-66.254508 115.912516 75.216384
-64.482615 116.460934 75.060984
-62.694305 116.971113 74.903025
-61.100471 117.934252 74.775372
-59.409399 118.670911 74.632567
-57.567112 119.055370 74.466197
-56.000121 120.081030 74.342727
-54.336184 120.880887 74.204150
-52.439918 121.139627 74.029368
-50.872928 122.165287 73.905898
-48.961583 122.388904 73.728767
-47.312725 123.223884 73.592539
-45.579439 123.862221 73.443155
-43.752522 124.282482 73.279180
-41.895911 124.633579 73.110578
-40.192319 125.341079 72.965821
-38.513767 126.106897 72.824967
-36.632117 126.399676 72.652462
-34.638904 126.432614 72.462573
-33.071914 127.458274 72.339104
-31.078701 127.491212 72.149214
-29.455638 128.386271 72.017007
-27.518498 128.549809 71.835855
-25.772109 129.157628 71.684429
-23.958295 129.608407 71.522496
-21.965082 129.641345 71.332607
-20.096124 129.963685 71.162081
-18.404880 130.699942 71.019248
-16.411667 130.732880 70.829359
-14.420138 130.769741 70.639732
-12.851464 131.791478 70.516000
-10.858251 131.824416 70.326111
-8.865039 131.857354 70.136222
-7.053081 132.312456 69.974578
-5.304836 132.915951 69.822863
-3.311623 132.948889 69.632974
-1.318410 132.981827 69.443084
0.674802 133.014766 69.253195
2.607818 133.187910 69.072687
4.235005 134.073363 68.939836
6.228218 134.106301 68.749947
8.221431 134.139239 68.560058
10.214643 134.172177 68.370169
12.207856 134.205115 68.180280
14.201069 134.238053 67.990390
16.194281 134.270991 67.800501
18.187494 134.303929 67.610612
20.180707 134.336867 67.420723
22.173920 134.369805 67.230834
24.167132 134.402743 67.040944
26.160345 134.435681 66.851055
28.153558 134.468619 66.661166
30.146770 134.501558 66.471277
32.139983 134.534496 66.281388
33.900623 133.979901 66.098584
35.728049 133.594024 65.913746
37.721262 133.626962 65.723857
39.714475 133.659900 65.533967
41.707687 133.692838 65.344078
43.581471 133.424071 65.157828
45.295754 132.752367 64.976437
47.288966 132.785305 64.786547
49.282179 132.818243 64.596658
51.269813 132.837088 64.406939
52.870245 131.877771 64.229016
54.863458 131.910709 64.039127
56.856671 131.943647 63.849238
58.451524 130.970238 63.671485
60.444737 131.003176 63.481596
62.379803 130.889221 63.293479
64.032803 130.062704 63.113955
66.026016 130.095642 62.924065
67.620870 129.122232 62.746313
69.614082 129.155170 62.556424
71.497287 128.910201 62.369886
73.202149 128.214699 62.188782
75.195361 128.247637 61.998893
76.790215 127.274227 61.821140
78.622264 126.900028 61.636161
80.378281 126.333756 61.453499
82.043911 125.539143 61.273590
83.966348 125.393284 61.085857
85.561201 124.419875 60.908104
87.554414 124.452813 60.718215
89.168889 123.528970 60.539865
91.142480 123.512341 60.350573
92.737334 122.538931 60.172821
94.332188 121.565522 59.995068
96.293866 121.518797 59.806140
97.920254 120.625050 59.627427
99.515108 119.651641 59.449674
101.426337 119.477470 59.262283
103.103174 118.711169 59.082032
104.698027 117.737759 58.904280
106.292881 116.764350 58.726527
107.987950 116.044107 58.545722
109.698773 115.363664 58.364436
111.475801 114.850468 58.181133
113.120421 114.002780 58.001865
114.831245 113.322338 57.820579
116.542068 112.641896 57.639293
118.252892 111.961454 57.458007
119.848428 110.989768 57.280234
121.392857 109.888974 57.104018
123.038135 109.042949 56.924729
124.632989 108.069539 56.746976
126.243646 107.136052 56.568743
127.672787 105.744015 56.396039
129.383611 105.063573 56.214753
130.812752 103.671536 56.042049
132.523576 102.991093 55.860763
134.202111 102.229081 55.680461
135.663541 100.918614 55.506774
137.374365 100.238172 55.325488
138.803506 98.846134 55.152784
140.232648 97.454097 54.980081
141.778020 96.355686 54.803836
143.372613 95.381617 54.626091
144.801754 93.989580 54.453387
146.230895 92.597543 54.280683
147.660037 91.205505 54.107980
149.089178 89.813468 53.935276
150.518319 88.421430 53.762572
151.947461 87.029393 53.589868
153.376602 85.637356 53.417164
154.805743 84.245318 53.244461
156.234885 82.853281 53.071757
157.727973 81.622789 52.897105
158.675106 80.476414 52.776870
160.104247 79.084376 52.604166
161.533389 77.692339 52.431462
162.962530 76.300301 52.258758
164.391671 74.908264 52.086054
165.121069 73.211839 51.972453
166.550210 71.819801 51.799749
167.616070 70.269737 51.657729
168.708749 68.731339 51.513444
169.651041 67.127523 51.381861
170.867288 65.642877 51.227139
171.686012 63.985309 51.105992
173.025826 62.554414 50.940833
173.755224 60.857989 50.827232
174.738469 59.271988 50.692190
175.913763 57.769527 50.540927
176.773440 56.129773 50.416321
177.790926 54.558666 50.278387
178.801699 52.984639 50.141020
179.531096 51.288214 50.027419
179.853796 49.414876 49.948168
180.871281 47.843769 49.810234
181.719289 46.198939 49.686614
181.916665 44.271086 49.617949
182.934151 42.699979 49.480015
183.207737 40.805276 49.404912
183.979535 39.127295 49.287730
184.666532 37.412426 49.177709
185.024919 35.554612 49.095444
186.042405 33.983505 48.957510
186.070303 31.981929 48.903159
186.884378 30.322338 48.782406
187.115687 28.409245 48.710874
187.143585 26.407669 48.656523
187.673082 24.624288 48.559806
188.188969 22.834986 48.464238
188.216868 20.833410 48.409888
188.244766 18.831834 48.355537
189.191184 17.229812 48.223605
189.290150 15.259150 48.163252
189.318049 13.257574 48.108901
189.345947 11.255998 48.054550
189.373845 9.254422 48.000199
189.401744 7.252845 47.945848
189.429642 5.251269 47.891497
189.457540 3.249693 47.837147
189.485439 1.248117 47.782796
188.512208 -0.355887 47.834513
188.540107 -2.357463 47.780162
188.568005 -4.359040 47.725811
188.231811 -6.216026 47.710035
187.622673 -7.964620 47.723177
187.650571 -9.966196 47.668827
187.602274 -11.937513 47.622549
186.705239 -13.571776 47.666193
186.733138 -15.573352 47.611842
185.759908 -17.177356 47.663559
185.583050 -19.097619 47.630902
184.814576 -20.782936 47.660925
184.842474 -22.784512 47.606575
183.869244 -24.388516 47.658292
183.563826 -26.257725 47.639255
182.882044 -27.977469 47.660094
181.950681 -29.598100 47.707375
180.977451 -31.202104 47.759092
180.836697 -33.136704 47.722610
180.032119 -34.807684 47.756459
179.058889 -36.411688 47.808176
178.083446 -38.014813 47.860127
177.112428 -39.619695 47.911610
176.139198 -41.223699 47.963327
175.330194 -42.892922 47.997645
174.648412 -44.612667 48.018483
173.258725 -46.051285 48.114324
172.576943 -47.771030 48.135162
171.273046 -49.243719 48.221913
170.505473 -50.929394 48.251841
169.326585 -52.451726 48.325347
168.434004 -54.087758 48.368520
167.044317 -55.526377 48.464360
165.654630 -56.964996 48.560200
164.972848 -58.684741 48.581039
163.583161 -60.123359 48.676879
162.193474 -61.561978 48.772719
160.803786 -63.000597 48.868559
159.414099 -64.439216 48.964399
158.024412 -65.877835 49.060239
156.634725 -67.316453 49.156079
155.245038 -68.755072 49.251919
153.855351 -70.193691 49.347759
152.465664 -71.632310 49.443599
151.075977 -73.070929 49.539439
149.686290 -74.509548 49.635280
148.296603 -75.948166 49.731120
146.906915 -77.386785 49.826960
145.517228 -78.825404 49.922800
143.829141 -79.569014 50.065140
142.436469 -81.000682 50.161446
141.046782 -82.439301 50.257286
139.554393 -83.638713 50.369130
137.966023 -84.614578 50.495932
136.420412 -85.690032 50.616070
134.853422 -86.715692 50.739539
133.194192 -87.526515 50.877383
131.719442 -88.767010 50.986479
130.113433 -89.701792 51.116029
128.723746 -91.140411 51.211869
127.032674 -91.877070 51.354675
125.451481 -92.869648 51.480358
123.951915 -94.052348 51.593321
122.317500 -94.920967 51.727297
120.750510 -95.946626 51.850767
119.180084 -96.964284 51.974772
117.489013 -97.700943 52.117578
115.797941 -98.437602 52.260384
114.056327 -99.056543 52.411065
112.415797 -99.910919 52.545995
110.724725 -100.647578 52.688801
109.033653 -101.384237 52.831607
107.362144 -102.166459 52.971364
105.795153 -103.192118 53.094834
104.228163 -104.217778 53.218303
102.269365 -104.330872 53.402829
100.667960 -105.276375 53.531662
99.100970 -106.302035 53.655132
97.196150 -106.540849 53.831247
95.540767 -107.360632 53.968491
93.973777 -108.386291 54.091961
92.122934 -108.750825 54.259664
90.413574 -109.444889 54.405320
88.439405 -109.522183 54.592241
86.853371 -110.503486 54.718678
85.057262 -110.995500 54.877853
83.293168 -111.562084 55.032037
81.675118 -112.468818 55.163464
79.732965 -112.620681 55.345396
78.165975 -113.646341 55.468866
76.172762 -113.679279 55.658755
74.605772 -114.704938 55.782225
72.612559 -114.737876 55.972114
70.624532 -114.782891 56.161195
69.052357 -115.796474 56.285473
67.059144 -115.829412 56.475362
65.492154 -116.855071 56.598832
63.498941 -116.888009 56.788721
61.566403 -117.062265 56.969155
59.938738 -117.946607 57.102080
57.945525 -117.979545 57.291969
55.952313 -118.012483 57.481859
54.385322 -119.038142 57.605328
52.392110 -119.071080 57.795218
50.398897 -119.104018 57.985107
48.405684 -119.136956 58.174996
46.832288 -120.147695 58.299464
44.845481 -120.195554 58.488355
42.852269 -120.228492 58.678244
40.859056 -120.261430 58.868133
38.865843 -120.294368 59.058022
37.171389 -121.023149 59.201355
35.305640 -121.352965 59.371381
33.312428 -121.385903 59.561271
31.319215 -121.418841 59.751160
29.326002 -121.451779 59.941049
27.332790 -121.484717 60.130938
25.339577 -121.517655 60.320827
23.346364 -121.550594 60.510717
21.353152 -121.583532 60.700606
19.359939 -121.616470 60.890495
17.366726 -121.649408 61.080384
15.373514 -121.682346 61.270273
13.380301 -121.715284 61.460163
11.387088 -121.748222 61.650052
9.578380 -122.210893 61.811189
8.896598 -123.930638 61.832028
8.065292 -125.591003 61.868708
6.825129 -127.089001 61.948707
6.118831 -128.799011 61.972143
4.753659 -130.247365 62.065385
3.363972 -131.685984 62.161225
2.682190 -133.405729 62.182064
1.292503 -134.844348 62.277904
-0.097184 -136.282966 62.373744
-1.486871 -137.721585 62.469584
-2.876558 -139.160204 62.565424
-3.669269 -140.835897 62.598016
-5.249412 -141.616608 62.729069
-6.639100 -143.055227 62.824909
-8.028787 -144.493846 62.920749
-9.418474 -145.932464 63.016589
-10.919842 -147.110965 63.129833
-12.499233 -148.107742 63.255235
-13.888920 -149.546361 63.351075
-15.579992 -150.283020 63.493881
-16.969679 -151.721638 63.589721
-18.660751 -152.458297 63.732527
-20.050438 -153.896916 63.828367
-21.888774 -154.290581 63.994121
-23.455764 -155.316240 64.117591
-25.123654 -156.106893 64.256784
-26.589744 -157.367559 64.364530
-28.505797 -157.580210 64.542395
-30.149947 -158.426156 64.677889
-31.716937 -159.451816 64.801359
-33.579013 -159.790187 64.970813
-35.270085 -160.526845 65.113618
-36.844130 -161.536072 65.238187
-38.837343 -161.569011 65.428077
-40.404333 -162.594670 65.551546
-42.335757 -162.771521 65.731807
-43.964536 -163.653267 65.864905
-45.957749 -163.686205 66.054795
-47.710358 -164.279537 66.207190
-49.517952 -164.744803 66.368153
-51.511164 -164.777741 66.558043
-53.504377 -164.810679 66.747932
-55.077415 -165.822252 66.872344
-57.064580 -165.869276 67.061291
-59.057793 -165.902214 67.251180
-61.051005 -165.935153 67.441069
-63.044218 -165.968091 67.630958
-65.037431 -166.001029 67.820848
-67.030644 -166.033967 68.010737
-69.023856 -166.066905 68.200626
105.544473 73.707293 93.227796
103.900647 74.635014 93.479639
101.881352 74.547694 93.714529
100.045288 74.955718 93.957692
98.218232 75.388094 94.201261
96.556163 76.266495 94.452281
94.811600 76.921884 94.699575
93.286756 78.171256 94.956791
91.587972 78.950404 95.206152
89.999105 80.026697 95.460477
88.364344 80.978924 95.712729
86.885279 82.352055 95.972012
86.097513 84.047623 96.168639
85.237754 85.709612 96.371791
83.830682 87.116322 96.624548
83.137625 88.856064 96.812591
83.065206 90.885285 96.944382
82.158684 92.525463 97.151772
81.942723 94.487732 97.296574
82.484124 96.291345 97.341658
83.148626 98.049713 97.369353
83.813127 99.808082 97.397049
85.189776 101.304702 97.324147
86.566425 102.801323 97.251246
88.258904 103.605339 97.098735
90.136257 104.003934 96.899624
91.959692 104.520769 96.714104
93.728196 105.158065 96.542430
95.747492 105.245385 96.307541
97.684407 105.110000 96.068931
99.410612 104.404985 95.820808
101.429907 104.492305 95.585918
103.073733 103.564584 95.334075
104.928154 103.206187 95.091741
106.407220 101.833056 94.832459
108.380679 101.796463 94.595499
109.205045 100.199841 94.400525
110.949608 99.544453 94.153231
112.428673 98.171322 93.893948
114.173236 97.515933 93.646654
115.652301 96.142802 93.387371
116.440067 94.447234 93.190744
117.776625 93.007634 92.944378
118.015598 91.056098 92.797491
118.899108 89.405187 92.592186
119.591130 87.664962 92.404237
120.021592 85.802740 92.239995
120.094011 83.773519 92.108203
119.159301 82.114465 92.118677
118.372157 80.401174 92.108306
117.707656 78.642806 92.080611
116.331007 77.146185 92.153512
114.747647 76.102875 92.278518
113.175003 75.036064 92.400823
111.155707 74.948744 92.635712
109.561091 73.930119 92.763555
107.563768 73.794614 92.992906
14.613186 -24.112460 98.106006
12.998772 -23.183467 98.354428
11.008888 -23.269516 98.585896
9.178629 -22.924035 98.824572
7.404590 -22.426572 99.065787
5.732590 -21.653257 99.311608
3.800292 -21.583628 99.545677
2.185879 -20.654635 99.794099
0.563531 -19.747091 100.042163
-1.159489 -19.111702 100.285681
-2.657363 -17.867658 100.539365
-4.340031 -17.123182 100.784705
-5.797554 -15.770051 101.040211
-7.255076 -14.416919 101.295717
-8.642424 -13.031057 101.544863
-9.478822 -11.388220 101.744073
-10.719595 -10.527901 101.943883
-11.768604 -8.984231 102.162363
-12.734287 -7.401695 102.373292
-12.888978 -5.440896 102.510716
-13.575433 -3.728122 102.696336
-14.009352 -1.897561 102.859068
-14.080717 0.102104 102.988940
-14.152081 2.101769 103.118812
-13.870121 3.971571 103.198774
-13.287680 5.730932 103.236290
-12.581221 7.444710 103.256288
-11.936771 9.181280 103.285045
-11.292321 10.917850 103.313803
-9.935723 12.392672 103.241963
-9.147267 13.813441 103.234422
-7.618845 14.911459 103.119271
-6.262247 16.386281 103.047432
-4.905649 17.861103 102.975592
-3.233221 18.643321 102.824143
-1.876623 20.118143 102.752304
-0.204195 20.900361 102.600855
1.468233 21.682579 102.449406
3.198595 22.337748 102.283353
4.813088 23.247015 102.146508
6.731712 23.489335 101.933002
8.274945 24.554873 101.814118
10.264829 24.640922 101.582650
12.134460 24.990680 101.381493
13.797945 25.792509 101.232298
15.787829 25.878557 101.000830
17.777713 25.964606 100.769361
19.767596 26.050654 100.537893
21.757480 26.136702 100.306425
23.747364 26.222751 100.074956
25.471067 25.589209 99.831469
27.351661 25.379807 99.595066
29.341545 25.465855 99.363598
30.955959 24.536863 99.115176
32.894140 24.483138 98.881373
34.560257 23.693919 98.635286
36.340179 23.212361 98.394337
38.063199 22.576972 98.150819
39.778969 21.921982 97.906974
41.243741 20.588452 97.651795
42.966761 19.953063 97.408277
44.424284 18.599932 97.152771
45.881806 17.246800 96.897265
47.475569 16.261979 96.647910
48.371049 14.935843 96.460897
49.828571 13.582712 96.205391
50.594794 11.907144 96.012540
51.361017 10.231576 95.819690
52.208787 8.594044 95.619449
52.893463 6.880440 95.433990
53.329161 5.050709 95.271096
53.400526 3.051044 95.141225
53.471890 1.051379 95.011353
53.191763 -0.819097 94.931132
52.607489 -2.577784 94.893874
52.615011 -4.553984 94.773021
51.743089 -6.206946 94.776396
50.807323 -7.836444 94.788789
49.653684 -8.809341 94.866955
48.914945 -10.511255 94.851517
47.652636 -12.020733 94.910038
46.296037 -13.495555 94.981877
44.939439 -14.970377 95.053717
43.324769 -15.879255 95.190607
41.910413 -17.227417 95.277005
40.238303 -18.010332 95.428374
38.695071 -19.075870 95.547258
37.151838 -20.141409 95.666141
35.220702 -20.356289 95.882801
33.618721 -21.292995 96.016493
31.875846 -21.920725 96.185699
30.085605 -22.444582 96.366845
28.095721 -22.530631 96.598313
26.542732 -23.574775 96.719656
24.562604 -23.682217 96.948665
22.572721 -23.768266 97.180133
20.582837 -23.854314 97.411601
18.592953 -23.940363 97.643070
16.603069 -24.026411 97.874538
103.668760 57.653871 101.957657
102.060210 58.585615 102.218670
100.073246 58.503534 102.456521
98.464696 59.435278 102.717534
96.477733 59.353198 102.955384
94.540467 59.404265 103.196277
92.882219 60.202861 103.454248
91.273669 61.134605 103.715261
89.652164 62.031642 103.975481
87.933537 62.668474 104.229757
86.448019 63.929837 104.498301
84.763862 64.659019 104.754686
83.045235 65.295850 105.008961
81.326608 65.932682 105.263237
79.875559 67.286396 105.533891
78.405269 68.588556 105.803367
77.397864 69.597890 105.996038
75.946816 70.951603 106.266692
74.495768 72.305317 106.537346
73.044720 73.659031 106.808000
71.593671 75.012744 107.078654
70.142623 76.366458 107.349308
69.229954 77.969878 107.571116
68.186218 79.512508 107.804815
67.173439 81.069496 108.035706
66.098746 82.597768 108.272214
65.655303 84.418822 108.451450
64.989881 86.136918 108.650825
64.137167 87.768147 108.867194
63.881017 89.676069 109.029437
63.815889 91.672589 109.174349
62.772153 93.215219 109.408048
62.707024 95.211740 109.552960
63.583223 96.860087 109.558644
63.582314 98.832854 109.694058
63.517186 100.829375 109.838970
64.457604 102.453969 109.835155
65.398023 104.078563 109.831340
66.111764 105.786999 109.861052
66.759678 107.519784 109.900501
68.118621 108.989576 109.834784
69.617745 110.149617 109.730644
71.150073 111.236286 109.617404
72.704772 112.273524 109.498032
74.181525 113.482996 109.400025
75.791800 114.397432 109.265420
77.526544 115.036831 109.096700
79.322277 115.541466 108.911264
80.871563 116.590666 108.793376
82.852755 116.685500 108.557107
84.839719 116.767580 108.319257
86.826682 116.849661 108.081407
88.813646 116.931741 107.843556
90.800610 117.013821 107.605706
92.787574 117.095901 107.367855
94.506580 116.460085 107.113603
96.383087 116.246238 106.868992
98.211413 115.903303 106.621431
99.978601 115.396574 106.370128
101.965565 115.478655 106.132278
103.634873 114.709690 105.874983
105.353500 114.072859 105.620708
107.072127 113.436027 105.366433
108.778179 112.765503 105.111388
110.386729 111.833760 104.850374
111.995279 110.902016 104.589361
113.679057 110.171819 104.332953
115.212379 109.038528 104.067335
116.848732 108.181273 103.808023
118.299780 106.827560 103.537369
120.018408 106.190728 103.283094
121.469456 104.837015 103.012440
122.228524 103.162352 102.804568
123.679572 101.808639 102.533914
125.130620 100.454925 102.263260
126.581668 99.101211 101.992606
127.340736 97.426549 101.784734
128.791785 96.072835 101.514080
129.550853 94.398173 101.306208
130.339898 92.737414 101.095616
131.383634 91.194784 100.861917
132.427370 89.652154 100.628218
132.587125 87.699522 100.474720
133.536235 86.113004 100.249606
133.601363 84.116483 100.104694
134.172348 82.354586 99.913887
134.710227 80.577333 99.726083
134.546064 78.665622 99.615084
133.834937 76.956218 99.584985
133.900066 74.959698 99.440073
133.313351 73.204278 99.391573
132.665437 71.471493 99.352125
132.017523 69.738709 99.312676
131.143939 68.089395 99.306606
130.010666 66.536132 99.338945
128.382103 65.662109 99.478562
126.979214 64.289422 99.556324
125.620271 62.819630 99.622042
124.195011 61.496374 99.705936
122.588819 60.572919 99.839421
120.664534 60.352340 100.060092
119.121020 59.290387 100.176398
117.257724 58.935042 100.380352
115.590543 58.146352 100.530554
113.603579 58.064272 100.768405
111.616615 57.982192 101.006255
109.629651 57.900112 101.244106
107.642688 57.818031 101.481956
105.655724 57.735951 101.719806
10.249811 -62.993687 105.130476
8.636121 -62.062156 105.392105
6.644018 -62.144448 105.630570
4.651914 -62.226741 105.869036
2.659811 -62.309033 106.107502
1.046121 -61.377502 106.369130
-0.945982 -61.459795 106.607596
-2.877169 -61.378881 106.849790
-4.551776 -60.610556 107.107690
-6.543879 -60.692848 107.346156
-8.157569 -59.761317 107.607784
-10.149673 -59.843609 107.846250
-11.763362 -58.912078 108.107879
-13.755466 -58.994370 108.346344
-15.468991 -58.330312 108.601862
-17.191372 -57.689978 108.856837
-18.913752 -57.049645 109.111813
-20.588639 -56.282068 109.369695
-22.580742 -56.364361 109.608161
-24.194432 -55.432830 109.869790
-25.808122 -54.501298 110.131418
-27.525655 -53.847978 110.386690
-29.248036 -53.207645 110.641666
-30.702838 -51.850429 110.913020
-32.425218 -51.210096 111.167995
-33.880020 -49.852881 111.439349
-35.868674 -49.925933 111.678026
-37.324781 -48.572214 111.949300
-39.047162 -47.931881 112.204276
-40.501963 -46.574665 112.475630
-41.956765 -45.217450 112.746984
-43.558710 -44.254451 113.009332
-45.133948 -43.219901 113.273314
-46.588749 -41.862686 113.544668
-48.043551 -40.505471 113.816022
-49.498353 -39.148256 114.087376
-50.953154 -37.791040 114.358730
-52.211246 -36.342589 114.612237
-53.170778 -34.755661 114.838656
-54.299055 -33.247000 115.080385
-55.388401 -31.720281 115.318582
-56.386864 -30.151411 115.548534
-57.430769 -28.603616 115.782608
-58.368845 -27.006737 116.007080
-59.131667 -25.328573 116.215653
-59.894488 -23.650409 116.424225
-60.657310 -21.972244 116.632797
-61.671684 -20.410753 116.864192
-62.182953 -18.615916 117.049941
-62.780885 -16.861274 117.243553
-63.708596 -15.259587 117.467085
-63.890087 -13.311795 117.622914
-63.955383 -11.310110 117.768201
-64.999288 -9.762315 118.002275
-65.064585 -7.760630 118.147562
-65.129882 -5.758945 118.292849
-65.195178 -3.757261 118.438136
-65.260475 -1.755576 118.583423
-65.325772 0.246109 118.728710
-65.042676 2.118932 118.822467
-64.450819 3.877553 118.870557
-64.516116 5.879238 119.015844
-63.799417 7.591682 119.045468
-63.641163 9.510681 119.157691
-63.207587 11.327846 119.229191
-62.556158 13.064432 119.268470
-61.825960 14.771884 119.296098
-60.885710 16.401643 119.292658
-59.945460 18.031401 119.289218
-59.239412 19.747785 119.320418
-58.587983 21.484372 119.359697
-57.936554 23.220958 119.398975
-56.574096 24.694552 119.333088
-55.922666 26.431139 119.372366
-54.560208 27.904733 119.306479
-53.363711 29.439712 119.265138
-52.546321 31.114914 119.279870
-51.183863 32.588509 119.213983
-49.821405 34.062103 119.148096
-48.458947 35.535698 119.082208
-47.096488 37.009293 119.016321
-45.420464 37.790012 118.864489
-44.058006 39.263607 118.798602
-42.695548 40.737201 118.732714
-41.098174 41.691713 118.602439
-39.657065 42.991515 118.514995
-38.000867 43.816045 118.368597
-36.305016 44.552954 118.211330
-34.903560 45.940377 118.134754
-33.266533 46.807268 117.993611
-31.806253 48.064709 117.900912
-30.228050 49.061583 117.775892
-28.552026 49.842302 117.624059
-26.876001 50.623022 117.472227
-25.168189 51.333500 117.311682
-23.210386 51.491585 117.082618
-21.627431 52.477959 116.956295
-20.078778 53.540125 116.839374
-18.495878 54.526619 116.713066
-16.538021 54.684584 116.483987
-14.830263 55.395183 116.323457
-12.997264 55.829042 116.128600
-11.164647 56.263746 115.933848
-9.456507 56.973501 115.773213
-7.499031 57.132310 115.544239
-5.915750 58.117960 115.417826
-3.923646 58.200252 115.179361
-2.157391 58.781594 115.002797
-0.382889 59.344711 114.823974
1.609215 59.427004 114.585508
3.601318 59.509296 114.347042
5.487407 59.825846 114.137634
7.142075 60.653755 113.991655
9.134179 60.736048 113.753190
11.126282 60.818340 113.514724
13.118386 60.900633 113.276258
15.110489 60.982925 113.037793
17.102593 61.065218 112.799327
19.094696 61.147511 112.560861
21.086800 61.229803 112.322396
23.078903 61.312096 112.083930
24.802356 60.674635 111.829020
26.684697 60.462857 111.583836
28.676800 60.545150 111.345370
30.668904 60.627442 111.106904
32.494615 60.263947 110.858254
34.274697 59.778203 110.606810
36.266801 59.860496 110.368345
37.929336 59.059829 110.109706
39.872594 59.011257 109.868250
41.641676 58.496044 109.616134
43.478387 58.162018 109.368156
45.354016 57.932259 109.122561
47.084181 57.312779 108.868062
48.798778 56.651592 108.612610
50.689974 56.463540 108.367968
52.303664 55.532009 108.106339
54.233498 55.447474 107.864062
55.909457 54.682770 107.606245
57.678260 54.166808 107.354111
59.400640 53.526474 107.099136
61.123021 52.886141 106.844160
62.742630 51.970468 106.582894
64.356320 51.038936 106.321266
66.022584 50.248259 106.062855
67.583699 49.175873 105.798009
69.199766 48.250710 105.536526
70.654568 46.893495 105.265172
72.376948 46.253162 105.010196
74.038458 45.449747 104.751495
75.554131 44.255613 104.483866
77.008932 42.898398 104.212512
78.731313 42.258064 103.957537
80.186115 40.900849 103.686183
81.640916 39.543634 103.414829
83.095718 38.186418 103.143475
84.550520 36.829203 102.872121
85.524756 35.249096 102.644367
86.768143 33.793824 102.392194
88.222945 32.436608 102.120840
88.985766 30.758444 101.912268
90.440568 29.401229 101.640914
91.203390 27.723064 101.432342
91.966211 26.044900 101.223770
92.832088 24.414534 101.005848
93.875993 22.866740 100.771774
94.919897 21.318945 100.537700
95.709477 19.653192 100.326700
96.472299 17.975028 100.118128
97.073003 16.221672 99.924264
97.305962 14.297750 99.763766
98.182205 12.672192 99.544903
98.247501 10.670507 99.399616
98.902446 8.942308 99.200832
99.356703 7.121028 99.020255
99.422000 5.119343 98.874968
99.487296 3.117658 98.729681
99.552593 1.115973 98.584394
99.617890 -0.885712 98.439107
99.683187 -2.887397 98.293820
98.742937 -4.517155 98.297260
98.808234 -6.518840 98.151973
98.805412 -8.495330 98.016761
97.933281 -10.150284 98.010126
97.502554 -11.968502 97.938204
97.058327 -13.781727 97.868279
96.199695 -15.441675 97.859647
95.548266 -17.178261 97.820369
94.896837 -18.914847 97.781090
94.245408 -20.651433 97.741812
93.362625 -22.302447 97.736752
92.422375 -23.932206 97.740192
91.580091 -25.598200 97.729142
90.541875 -27.191723 97.747072
89.566204 -28.808381 97.755751
88.661375 -30.451241 97.753952
87.552316 -32.018562 97.782360
86.189858 -33.492156 97.848247
84.827400 -34.965751 97.914134
83.464942 -36.439345 97.980022
82.102484 -37.912940 98.045909
80.621503 -39.124640 98.144282
79.064001 -40.167254 98.263628
77.701543 -41.640849 98.329516
76.025518 -42.421568 98.481348
74.426889 -43.373304 98.611967
72.987036 -44.675882 98.699067
71.624578 -46.149477 98.764955
69.948553 -46.930197 98.916787
68.586095 -48.403791 98.982674
66.910070 -49.184511 99.134506
65.234046 -49.965230 99.286338
63.586314 -50.808467 99.430416
62.037660 -51.870633 99.547337
60.489007 -52.932799 99.664258
58.529947 -53.088108 99.893667
56.948250 -54.077257 100.019645
55.177898 -54.649547 100.197331
