ply
format ascii 1.0
element vertex 1356
property float x
property float y
property float z
end_header
-26.156324 -34.603853 -69.006478
-27.669927 -33.487563 -68.953867
-29.670235 -33.337383 -68.864895
-31.670542 -33.187204 -68.775924
-33.670850 -33.037025 -68.686952
-35.184453 -31.920735 -68.634341
-37.184760 -31.770556 -68.545370
-39.106967 -31.465345 -68.462233
-40.698671 -30.504086 -68.403787
-42.413834 -29.787893 -68.336119
-44.212582 -29.237617 -68.262205
-46.212889 -29.087438 -68.173233
-47.726492 -27.971148 -68.120623
-49.715872 -27.799277 -68.032468
-51.240403 -26.704678 -67.979041
-52.754006 -25.588388 -67.926431
-54.332021 -24.599956 -67.869009
-55.781213 -23.355809 -67.821211
-57.781520 -23.205629 -67.732239
-59.295124 -22.089339 -67.679629
-60.219635 -21.005898 -67.653388
-61.738762 -19.900573 -67.600366
-63.182350 -18.645303 -67.552986
-64.491632 -17.123434 -67.515641
-65.800914 -15.601564 -67.478296
-67.454347 -14.762839 -67.415239
-68.820074 -13.353012 -67.373677
-69.690942 -12.163089 -67.351444
-71.000224 -10.641220 -67.314099
-71.583385 -8.880197 -67.313361
-73.220646 -8.009368 -67.251512
-74.149127 -6.388855 -67.232972
-75.027314 -4.725001 -67.217360
-75.712422 -2.997555 -67.211482
-76.295582 -1.236532 -67.210744
-76.634985 0.604775 -67.222294
-77.461904 2.285515 -67.209267
-77.364468 4.270698 -67.242840
-78.242655 5.934552 -67.227229
-78.093952 7.936621 -67.263387
-77.945249 9.938690 -67.299545
-77.796545 11.940759 -67.335703
-77.647842 13.942827 -67.371861
-77.499139 15.944896 -67.408019
-77.350436 17.946965 -67.444177
-76.236194 19.461231 -67.517186
-75.281818 21.056263 -67.584094
-74.973250 22.977566 -67.626354
-74.290873 24.710016 -67.682881
-73.454032 26.364428 -67.745303
-72.596064 28.008167 -67.808531
-71.097610 29.328324 -67.896205
-69.578030 30.637808 -67.984686
-68.561591 31.746897 -68.047291
-67.216944 32.993347 -68.126873
-66.145350 34.529159 -68.198255
-64.625770 35.838643 -68.286735
-63.106189 37.148126 -68.375215
-61.347193 37.730653 -68.463941
-59.827612 39.040137 -68.552421
-58.308032 40.349620 -68.640901
-56.549036 40.932147 -68.729626
-54.866845 41.747887 -68.818273
-53.205124 42.625780 -68.906898
-51.511462 43.406685 -68.995557
-49.752465 43.989212 -69.084282
-47.881375 44.231386 -69.173122
-46.219655 45.109278 -69.261747
-44.475474 45.736793 -69.350457
-42.557626 45.836992 -69.439345
-40.895905 46.714884 -69.527971
-38.959066 46.757418 -69.616878
-37.233877 47.442598 -69.705568
-35.233570 47.292418 -69.794540
-33.571849 48.170311 -69.883166
-31.571542 48.020132 -69.972138
-29.685248 48.216139 -70.060993
-27.909513 48.747845 -70.149735
-25.909206 48.597665 -70.238707
-23.908898 48.447486 -70.327679
-21.908591 48.297307 -70.416651
-19.932596 48.220948 -70.505598
-18.246563 49.025020 -70.594249
-16.246255 48.874841 -70.683221
-14.732652 47.758551 -70.735831
-12.732345 47.608372 -70.824803
-10.732037 47.458192 -70.913775
-8.731730 47.308013 -71.002747
-7.188623 46.250288 -71.057561
-5.217819 46.041544 -71.144329
-3.217512 45.891364 -71.233301
-1.540018 45.100397 -71.298155
0.296399 44.624895 -71.374883
2.296706 44.474716 -71.463855
3.810310 43.358426 -71.516465
5.762020 43.111780 -71.601806
7.324220 42.091956 -71.658047
9.068887 41.434328 -71.727920
10.378169 39.912459 -71.765265
12.351734 39.709197 -71.852239
13.685036 38.235007 -71.891379
15.378941 37.476617 -71.957459
16.991903 36.557556 -72.017492
18.406148 35.244037 -72.062679
19.954619 34.196961 -72.117894
21.608053 33.358235 -72.180951
22.946958 31.895168 -72.220509
24.570768 30.997640 -72.281353
25.724862 29.994452 -72.319236
26.807362 28.397890 -72.345148
28.116644 26.876021 -72.382493
29.425926 25.354152 -72.419839
30.735208 23.832283 -72.457184
32.044490 22.310413 -72.494529
32.627651 20.549390 -72.495267
33.210811 18.788367 -72.496005
33.793972 17.027344 -72.496744
35.103254 15.505474 -72.534089
36.412536 13.983605 -72.571434
36.411808 12.030273 -72.542736
36.852737 10.222404 -72.536304
37.141292 8.364350 -72.522190
36.992588 6.362282 -72.486032
36.843885 4.360213 -72.449874
36.695182 2.358144 -72.413716
36.546479 0.356075 -72.377558
36.397775 -1.645994 -72.341400
36.249072 -3.648063 -72.305242
35.134831 -5.162329 -72.232232
34.986128 -7.164398 -72.196074
34.111881 -8.799912 -72.132224
33.275040 -10.454325 -72.069802
31.755460 -11.763808 -71.981322
31.494701 -13.709265 -71.940887
30.081776 -15.072633 -71.856478
29.244935 -16.727045 -71.794055
27.725355 -18.036528 -71.705575
25.966358 -18.619055 -71.616850
25.001340 -20.208711 -71.549536
23.609936 -21.582951 -71.465948
22.090356 -22.892435 -71.377467
20.331359 -23.474962 -71.288742
18.811779 -24.784445 -71.200262
17.052782 -25.366972 -71.111537
16.126294 -26.749186 -71.049023
14.456943 -27.603912 -70.960390
12.697947 -28.186439 -70.871664
10.938950 -28.768966 -70.782939
9.419370 -30.078449 -70.694459
7.479103 -30.110577 -70.605549
5.817383 -30.988470 -70.516923
3.902962 -31.099074 -70.428039
2.155354 -31.716183 -70.339325
0.155047 -31.566004 -70.250353
-1.374029 -32.846655 -70.161863
-3.168395 -33.321789 -70.073102
-5.168702 -33.171610 -69.984130
-7.129853 -33.140322 -69.895198
-8.830730 -33.899323 -69.806533
-10.647847 -34.305376 -69.717748
-12.492759 -34.627036 -69.628935
-14.493066 -34.476857 -69.539963
-16.493373 -34.326677 -69.450991
-18.493681 -34.176498 -69.362019
-20.493988 -34.026319 -69.273047
-22.398913 -34.165755 -69.184173
-24.156017 -34.754032 -69.095449
15.791422 -42.083305 24.299788
14.186306 -41.110995 24.486239
12.182027 -41.144787 24.671798
10.177749 -41.178578 24.857357
8.173470 -41.212370 25.042916
6.568354 -40.240060 25.229367
4.564076 -40.273851 25.414926
2.634173 -40.120176 25.600651
0.954681 -39.335332 25.786936
-1.049598 -39.369124 25.972495
-2.654713 -38.396814 26.158946
-4.259828 -37.424504 26.345397
-5.957430 -36.685309 26.531642
-7.869222 -36.485985 26.717407
-9.474337 -35.513675 26.903858
-11.112392 -34.624388 27.090236
-12.830712 -33.937415 27.276434
-14.289683 -32.596744 27.463212
-15.985102 -31.852046 27.649461
-17.499914 -30.652124 27.836114
-19.139492 -29.766678 28.022488
-20.575561 -28.368283 28.209318
-22.011630 -26.969889 28.396147
-23.257605 -26.077472 28.546093
-24.274357 -24.496698 28.700740
-25.201845 -22.877099 28.848537
-26.300112 -21.920438 28.987147
-26.955990 -20.182705 29.114098
-28.333616 -18.758891 29.296442
-29.128007 -17.081402 29.434023
-29.376997 -15.166696 29.529747
-29.899779 -13.371074 29.646483
-30.420379 -11.574502 29.763051
-30.447009 -9.563082 29.841709
-30.473638 -7.551662 29.920366
-30.500268 -5.540241 29.999023
-30.526898 -3.528821 30.077681
-30.553527 -1.517401 30.156338
-29.598773 0.104757 30.128769
-29.605706 2.108364 30.205295
-28.925567 3.839447 30.207451
-28.235029 5.566405 30.208481
-27.485418 7.155653 30.198789
-25.845123 8.037958 30.079295
-25.154585 9.764916 30.080325
-23.756176 11.211099 30.004734
-22.776801 12.823490 29.974500
-21.366270 13.682651 29.875548
-20.614331 15.266472 29.865434
-18.976364 16.154204 29.746363
-18.040222 17.308615 29.702815
-16.461562 18.334602 29.594508
-14.887090 19.370351 29.486961
-13.304244 20.386577 29.377894
-11.488355 20.859540 29.226529
-10.089946 22.305723 29.150938
-8.142646 22.472344 28.975721
-6.691210 23.794912 28.890506
-4.985328 24.524319 28.759107
-2.991517 24.582513 28.575448
-1.402389 25.584098 28.465241
0.176270 26.610085 28.356934
2.180549 26.643877 28.171376
4.106912 26.859303 27.999959
5.763487 27.703656 27.877510
7.767766 27.737447 27.691951
9.772045 27.771239 27.506392
11.506300 28.434504 27.369844
13.354983 28.831018 27.212526
15.359262 28.864809 27.026967
17.363541 28.898601 26.841409
19.367820 28.932392 26.655850
21.372099 28.966184 26.470291
22.977214 27.993874 26.283840
24.981493 28.027665 26.098281
26.985772 28.061457 25.912722
28.937272 27.962220 25.727045
30.595166 27.122938 25.540712
32.599445 27.156729 25.355153
34.374485 26.612720 25.169082
36.208839 26.218211 24.983143
37.813954 25.245901 24.796692
39.811698 25.263221 24.611119
41.247767 23.864826 24.424289
43.028463 23.335072 24.238231
44.684409 22.490880 24.051893
46.402729 21.803906 23.865695
48.121050 21.116933 23.679497
49.557119 19.718538 23.492668
51.275439 19.031564 23.306470
52.711509 17.633170 23.119641
54.429829 16.946196 22.933443
55.865898 15.547801 22.746614
57.301968 14.149406 22.559784
58.738037 12.751012 22.372955
59.473984 11.048104 22.239859
60.910053 9.649709 22.053030
61.931130 8.070816 21.898051
63.136167 6.684760 21.733226
64.100268 5.556920 21.600640
64.973637 3.913783 21.456997
65.000266 1.902362 21.378340
66.017018 0.321589 21.223692
66.043648 -1.689832 21.145035
66.070278 -3.701252 21.066377
66.415584 -5.574066 20.963262
67.113659 -7.293446 20.833073
67.140289 -9.304866 20.754415
66.402163 -11.012949 20.758536
65.711624 -12.739907 20.757506
65.218017 -14.544976 20.735160
64.330548 -16.193822 20.755446
64.270195 -18.170742 20.686203
62.949471 -19.647738 20.753385
62.258933 -21.374696 20.752355
61.346843 -23.013776 20.775306
59.869027 -23.846249 20.881541
59.178489 -25.573206 20.880511
57.509821 -26.389369 21.005155
56.080712 -27.763984 21.086318
54.682303 -29.210167 21.161908
53.283893 -30.656350 21.237499
51.885484 -32.102534 21.313090
50.467764 -33.503699 21.392186
48.486749 -33.591723 21.573522
46.884826 -34.563478 21.686051
45.306166 -35.589466 21.794358
43.388646 -35.825506 21.964170
41.990237 -37.271690 22.039761
40.144569 -37.675232 22.196531
38.565910 -38.701220 22.304838
36.561631 -38.735011 22.490397
34.891808 -39.548479 22.615250
32.978692 -39.794790 22.784263
31.192114 -40.336080 22.930308
29.395754 -40.854569 23.078128
27.391475 -40.888361 23.263687
25.387196 -40.922152 23.449246
23.792726 -41.911281 23.560423
21.804258 -41.981931 23.743112
19.799979 -42.015722 23.928671
17.795701 -42.049514 24.114229
12.473358 -43.003754 24.545406
10.927355 -41.939744 24.729819
8.924980 -41.857197 24.919606
6.922605 -41.774650 25.109394
5.126100 -41.249364 25.296757
3.374227 -40.628094 25.483594
1.371852 -40.545547 25.673382
-0.545695 -40.280571 25.862170
-2.176527 -39.398991 26.047582
-3.722530 -38.334981 26.231996
-5.724905 -38.252434 26.421783
-7.270909 -37.188425 26.606197
-8.923010 -36.352586 26.791860
-10.598473 -35.566989 26.977797
-11.951233 -34.087393 27.159936
-13.911295 -33.913849 27.349225
-15.302159 -32.516199 27.531812
-16.977622 -31.730602 27.717749
-18.330382 -30.251006 27.899888
-19.683142 -28.771410 28.082026
-21.358605 -27.985813 28.267964
-21.995014 -26.242774 28.393301
-23.670477 -25.457177 28.579239
-24.541457 -23.800403 28.723175
-25.659647 -22.234542 28.886714
-27.012407 -20.754946 29.068852
-27.648816 -19.011907 29.194189
-29.275666 -18.208432 29.376273
-29.186382 -16.198514 29.444068
-29.880748 -14.476789 29.574000
-30.020888 -12.551243 29.659987
-30.944677 -10.913890 29.808111
-31.073627 -8.984229 29.893210
-31.779182 -7.266619 30.024030
-31.057164 -5.551300 30.021685
-30.624286 -3.701359 30.051392
-30.535003 -1.691441 30.119187
-30.445719 0.318477 30.186982
-29.973646 2.150169 30.212344
-29.290823 3.883736 30.214343
-28.136354 4.800732 30.141452
-27.185578 6.409541 30.113748
-26.559041 8.169315 30.121987
-25.770385 9.853607 30.112255
-24.965069 11.530142 30.100676
-23.502702 12.900756 30.016261
-21.763697 13.545593 29.878572
-20.817881 15.156711 29.851419
-19.236036 15.874722 29.731151
-17.757010 17.237579 29.644890
-16.277985 18.600437 29.558628
-14.538980 19.245274 29.420939
-13.059954 20.608131 29.334678
-11.320949 21.252969 29.196989
-9.841923 22.615826 29.110728
-7.956555 22.856432 28.944086
-6.321846 23.789318 28.827028
-4.364929 23.832319 28.646233
-2.684763 24.639658 28.520183
-1.050054 25.572545 28.403126
0.952321 25.489998 28.213338
2.591090 26.411668 28.095477
4.589404 26.340338 27.906493
6.224113 27.273224 27.789436
8.226488 27.190678 27.599648
10.228863 27.108131 27.409861
12.066053 27.481796 27.252750
13.865946 27.958471 27.103016
15.868321 27.875924 26.913229
17.870696 27.793377 26.723442
19.873070 27.710830 26.533655
21.875445 27.628284 26.343868
23.877820 27.545737 26.154080
25.456661 26.552347 25.969280
27.426199 26.399180 25.779879
29.428573 26.316634 25.590092
31.430948 26.234087 25.400305
32.976952 25.170077 25.215891
34.802086 24.706359 25.028191
36.525330 24.023521 24.841691
38.475715 23.829164 24.652516
40.073709 22.876964 24.467490
41.826641 22.257970 24.280640
43.502104 21.472373 24.094702
45.168091 20.666398 23.908876
46.714095 19.602389 23.724462
48.260099 18.538379 23.540048
49.881253 17.635986 23.354750
51.352106 16.410360 23.171221
52.909476 15.370793 22.986674
54.444113 14.282341 22.802394
55.221348 12.842157 22.675399
56.896811 12.056560 22.489461
58.249571 10.576964 22.307323
59.602331 9.097368 22.125184
60.555547 7.470837 21.974727
61.642029 5.983398 21.817114
62.550613 4.825693 21.688572
63.352894 3.143655 21.550083
64.276683 1.506302 21.401959
64.459842 -0.403424 21.312561
65.111189 -2.140970 21.186040
66.034978 -3.778323 21.037916
65.945694 -5.788241 20.970121
65.856411 -7.798159 20.902325
65.767128 -9.808077 20.834530
66.690917 -11.445430 20.686406
66.601633 -13.455348 20.618611
66.345270 -15.387474 20.569337
64.866245 -16.750332 20.655599
64.381124 -18.575949 20.631683
63.315511 -20.131290 20.672117
62.500275 -21.803206 20.684795
61.711619 -23.487498 20.694528
60.922962 -25.171789 20.704260
60.029388 -26.807232 20.725622
58.395301 -27.500918 20.851681
57.924144 -29.333037 20.826218
56.435054 -29.811902 20.946895
54.868550 -30.819388 21.054770
53.770368 -31.762591 21.121422
52.291342 -33.125448 21.207683
50.812317 -34.488305 21.293945
49.073312 -35.133143 21.431633
47.577151 -36.448675 21.521285
45.855281 -37.140838 21.655584
44.116276 -37.785675 21.793273
42.377271 -38.430513 21.930962
40.670650 -39.164788 22.062245
39.035941 -40.097675 22.179303
37.160256 -40.365025 22.344029
35.398858 -40.948015 22.486147
33.422267 -40.936680 22.670834
31.761774 -41.798354 22.792992
29.759399 -41.715808 22.982780
28.124691 -42.648694 23.099837
26.122316 -42.566148 23.289625
24.119941 -42.483601 23.479412
22.208300 -42.651645 23.651251
20.482858 -43.333941 23.786257
18.480483 -43.251394 23.976044
16.478108 -43.168847 24.165831
14.475733 -43.086300 24.355618
-12.948885 -19.983364 40.164320
-14.518975 -18.945712 40.318595
-16.528855 -18.897065 40.467754
-18.341646 -18.405202 40.619205
-20.108824 -17.810766 40.771187
-22.040479 -17.586205 40.921256
-23.688794 -16.724467 41.074621
-25.698674 -16.675820 41.223779
-27.268764 -15.638168 41.378055
-28.838853 -14.600516 41.532330
-30.510115 -13.790382 41.685428
-32.204042 -13.031218 41.838263
-33.586989 -11.572721 41.994716
-35.119209 -10.449909 42.149432
-36.663864 -9.355060 42.304003
-38.046812 -7.896564 42.460456
-39.429760 -6.438067 42.616909
-40.812707 -4.979571 42.773361
-42.195655 -3.521074 42.929814
-42.865781 -1.787040 43.044425
-43.535907 -0.053006 43.159036
-44.291542 1.647974 43.278666
-45.245527 3.272284 43.409939
-45.546285 5.149095 43.502868
-46.145416 6.910572 43.613312
-46.091319 8.924550 43.685411
-46.037222 10.938529 43.757510
-45.983125 12.952507 43.829610
-45.117896 14.606169 43.828646
-44.889078 16.542534 43.885008
-44.834981 18.556513 43.957107
-43.795032 20.132561 43.940405
-42.765600 21.713282 43.924651
-42.700986 23.722588 43.995803
-41.664973 24.708202 43.957090
-40.205521 26.097901 43.902601
-38.746069 27.487600 43.848112
-37.759221 28.600318 43.817803
-36.251236 29.863194 43.754967
-34.518753 30.539426 43.653519
-33.059301 31.929125 43.599031
-32.234327 33.464840 43.596563
-30.564468 34.304719 43.505886
-28.600689 34.376541 43.364657
-26.976932 35.336889 43.281909
-25.093989 35.619947 43.154583
-23.361506 36.296179 43.053135
-21.902054 37.685878 42.998646
-20.095781 38.169286 42.884506
-18.085901 38.120639 42.735348
-16.158544 38.287639 42.600383
-14.452263 39.032340 42.503442
-12.442383 38.983693 42.354284
-10.432503 38.935046 42.205125
-8.422622 38.886399 42.055967
-6.412742 38.837752 41.906809
-4.402861 38.789104 41.757650
-2.392981 38.740457 41.608492
-0.388075 38.680625 41.459276
1.186988 37.654158 41.305059
3.196869 37.605511 41.155900
5.004686 37.102463 41.004391
6.776838 36.519212 40.852467
8.392540 35.584134 40.698722
10.356808 35.432913 40.549033
11.926897 34.395262 40.394757
13.785300 34.005972 40.243837
15.168248 32.547476 40.087384
16.862175 31.788311 39.934549
18.556102 31.029147 39.781715
19.939050 29.570650 39.625262
21.347432 28.169351 39.469105
23.015925 27.352989 39.315975
24.398872 25.894493 39.159522
25.149454 24.191558 39.040188
26.451946 22.701962 38.888458
27.834894 21.243466 38.732005
28.505020 19.509432 38.617395
28.965395 17.694320 38.515096
29.845272 16.041364 38.388173
29.865283 14.056032 38.311723
30.472702 12.297759 38.200794
30.765171 10.417744 38.108351
30.711074 8.403765 38.036251
30.656977 6.389787 37.964152
30.602880 4.375808 37.892053
30.134855 2.545703 37.857238
29.508834 0.785781 37.836655
29.307258 -1.162685 37.777840
27.847806 -2.552384 37.832328
27.085456 -4.251746 37.824025
26.323107 -5.951109 37.815722
25.294940 -7.532391 37.831363
23.828274 -8.326703 37.908867
22.368822 -9.716402 37.963356
20.909370 -11.106101 38.017845
19.176887 -11.782333 38.119293
18.154928 -13.366373 38.134374
16.506337 -13.698752 38.242660
14.949571 -14.834158 38.313886
13.258823 -15.619448 38.408156
11.635066 -16.579796 38.490904
9.752123 -16.862854 38.618230
8.019640 -17.539086 38.719678
6.377672 -18.451845 38.805558
4.367791 -18.403198 38.954716
2.744034 -19.363546 39.037464
0.734154 -19.314899 39.186622
-1.275727 -19.266251 39.335781
-2.921318 -20.169542 39.422284
-4.909364 -20.177952 39.567687
-6.919244 -20.129305 39.716845
-8.929125 -20.080658 39.866003
-10.939005 -20.032011 40.015162
-11.662173 -20.623397 39.738816
-13.250852 -19.622611 39.893062
-15.256322 -19.620727 40.040131
-17.261792 -19.618844 40.187200
-19.081824 -19.172529 40.337462
-20.789379 -18.456647 40.489660
-22.444621 -17.615388 40.642760
-24.204489 -17.024882 40.794058
-25.912044 -16.309000 40.946256
-27.627449 -15.611932 41.098320
-29.327154 -14.877235 41.250654
-30.804808 -13.610359 41.406811
-32.447549 -12.739139 41.560126
-33.860388 -11.316926 41.717400
-35.567943 -10.601043 41.869598
-36.980783 -9.178830 42.026872
-38.544866 -8.403628 42.170795
-39.394885 -6.748711 42.295603
-40.527737 -5.210734 42.436726
-41.514272 -3.612261 42.569409
-42.510608 -2.017840 42.702658
-43.502044 -0.421393 42.835624
-43.633914 1.530449 42.919007
-44.486067 3.184484 43.043939
-45.477502 4.780931 43.176905
-45.470090 6.790361 43.252254
-45.462677 8.799791 43.327604
-45.455264 10.809221 43.402954
-45.447851 12.818651 43.478303
-45.127263 14.697610 43.525770
-44.408073 16.410507 43.537748
-43.434024 18.017229 43.527035
-42.969693 19.836303 43.561703
-42.250503 21.549201 43.573681
-41.420197 23.215806 43.575766
-40.107990 24.681648 43.534946
-38.684667 26.101198 43.484233
-37.261344 27.520748 43.433520
-36.411573 29.179245 43.433872
-34.829330 29.946316 43.346867
-33.116505 30.658986 43.248236
-31.693182 32.078536 43.197523
-29.980357 32.791206 43.098892
-28.267532 33.503877 43.000261
-26.610112 34.351830 42.910801
-25.014060 35.349626 42.831498
-23.129057 35.641887 42.704368
-21.412538 36.345538 42.605126
-19.703407 37.067228 42.507106
-17.811016 37.341450 42.378754
-15.805546 37.339567 42.231685
-13.985928 37.791479 42.115378
-12.204024 38.335479 42.005314
-10.198554 38.333595 41.858245
-8.193085 38.331712 41.711176
-6.187615 38.329829 41.564107
-4.182145 38.327945 41.417038
-2.176675 38.326062 41.269970
-0.171205 38.324178 41.122901
1.446830 37.393749 40.969161
3.422944 37.321509 40.821586
5.156656 36.668315 40.669838
7.017093 36.318839 40.520272
8.605772 35.318053 40.366026
10.611242 35.316169 40.218957
12.281591 34.511116 40.066118
13.989146 33.795234 39.913919
15.401986 32.373020 39.756646
17.109541 31.657138 39.604447
18.554639 30.312238 39.447729
20.229935 29.519042 39.294975
21.642775 28.096829 39.137701
23.055615 26.674615 38.980428
24.412830 25.813882 38.848438
25.497028 24.309952 38.712167
26.470980 23.236591 38.600238
27.389296 21.609912 38.471490
28.590367 20.100141 38.326432
29.372167 18.417018 38.205559
30.003461 16.671667 38.093367
30.356190 14.811141 37.997243
31.347625 13.214694 37.864278
31.340213 11.205264 37.788928
31.332800 9.195834 37.713579
31.325387 7.186404 37.638229
31.317974 5.176974 37.562879
31.310561 3.167543 37.487530
30.484432 1.499198 37.485073
29.765242 -0.213700 37.473095
29.046052 -1.926598 37.461117
28.293527 -3.625608 37.452107
26.903539 -5.059045 37.499853
26.184349 -6.771943 37.487875
24.761026 -8.191493 37.538588
23.337703 -9.611043 37.589301
22.281696 -11.183620 37.607311
20.905688 -12.036611 37.675954
19.192863 -12.749281 37.774585
17.559420 -13.655779 37.860077
15.963368 -14.653575 37.939380
14.343891 -15.594172 38.022560
12.771264 -16.649166 38.097985
10.918241 -17.019512 38.219822
9.205416 -17.732182 38.318452
7.573690 -18.642873 38.403660
5.568220 -18.640990 38.550729
3.972168 -19.638785 38.630032
1.966698 -19.636902 38.777101
0.062287 -19.881774 38.907442
-1.634824 -20.632814 39.003472
-3.640294 -20.630930 39.150541
-5.645763 -20.629047 39.297610
-7.651233 -20.627164 39.444679
-9.656703 -20.625280 39.591747
7.130910 -49.511299 -59.262824
5.503915 -48.574683 -59.154816
3.503680 -48.653556 -59.014433
1.503446 -48.732429 -58.874049
-0.496788 -48.811302 -58.733666
-2.333574 -48.445472 -58.607460
-4.124018 -47.953559 -58.485275
-6.124252 -48.032432 -58.344891
-7.801129 -47.231529 -58.232557
-9.751482 -47.174689 -58.096500
-11.378478 -46.238073 -57.988492
-13.378712 -46.316946 -57.848109
-15.267148 -46.091644 -57.717423
-17.005942 -45.459203 -57.599718
-18.736238 -44.803642 -57.482749
-20.470783 -44.159641 -57.365412
-22.205328 -43.515640 -57.248076
-23.887163 -42.728229 -57.135311
-25.674418 -42.227639 -57.013402
-27.514393 -41.870486 -56.886920
-29.125856 -41.527534 -56.776332
-30.184837 -39.975183 -56.711854
-31.811482 -39.037614 -56.603876
-33.390007 -37.969122 -56.500073
-35.065473 -37.164383 -56.387861
-36.595178 -35.963062 -56.288292
-38.319465 -35.291151 -56.171845
-39.946460 -34.354535 -56.063838
-40.453248 -32.812987 -56.037913
-41.619086 -31.310033 -55.965656
-43.286413 -30.483151 -55.854150
-44.131039 -28.983518 -55.804338
-45.601665 -27.621458 -55.709894
-46.379074 -25.938944 -55.665913
-47.746566 -25.125266 -55.575296
-48.197811 -23.291976 -55.555058
-49.843147 -22.606736 -55.444215
-50.016548 -20.645008 -55.444202
-50.982591 -19.049694 -55.386489
-51.571366 -17.279980 -55.356240
-53.041992 -15.917920 -55.261796
-53.181936 -13.940725 -55.264219
-53.261481 -11.935609 -55.271038
-53.341025 -9.930492 -55.277858
-53.420569 -7.925376 -55.284678
-54.480469 -6.373450 -55.220133
-54.560013 -4.368333 -55.226952
-53.626363 -2.737798 -55.302321
-53.705907 -0.732682 -55.309141
-53.785451 1.272435 -55.315961
-53.040023 2.972557 -55.378596
-52.931345 4.908087 -55.398150
-51.997695 6.538622 -55.473519
-51.114934 8.187972 -55.545445
-50.473238 9.926444 -55.601062
-49.831541 11.664915 -55.656678
-48.473408 13.138518 -55.760766
-47.329443 14.691300 -55.850365
-46.473579 16.350593 -55.920471
-45.115446 17.824196 -56.024560
-44.449300 19.509560 -56.081558
-42.795639 20.341236 -56.202351
-41.937763 21.610138 -56.270188
-40.475831 22.858276 -56.380143
-39.117698 24.331879 -56.484232
-37.439587 25.110447 -56.606407
-36.081454 26.584051 -56.710495
-34.403343 27.362619 -56.832670
-32.725233 28.141187 -56.954846
-31.367100 29.614790 -57.058934
-29.688989 30.393358 -57.181109
-28.010878 31.171926 -57.303284
-26.460591 32.228145 -57.418234
-24.912873 33.289946 -57.533039
-23.296523 34.202666 -57.651723
-21.364922 34.430619 -57.788227
-19.620323 35.064767 -57.914161
-17.942212 35.843336 -58.036336
-16.269253 36.633094 -58.158220
-14.269019 36.711967 -58.298603
-12.587902 37.484005 -58.420949
-10.721067 37.852640 -58.553791
-8.720833 37.931513 -58.694175
-7.173116 38.993314 -58.808980
-5.172881 39.072187 -58.949363
-3.237414 39.291742 -59.086085
-1.624930 40.212861 -59.204551
0.375305 40.291734 -59.344935
2.375539 40.370607 -59.485318
4.375773 40.449480 -59.625701
6.376007 40.528353 -59.766085
8.376242 40.607226 -59.906468
10.376476 40.686099 -60.046852
12.376710 40.764972 -60.187235
14.376945 40.843845 -60.327619
16.151462 40.308599 -60.448423
18.004174 39.986102 -60.576010
20.004409 40.064975 -60.716393
22.004643 40.143848 -60.856777
23.631639 39.207232 -60.964784
25.615946 39.242773 -61.103786
27.258869 38.349489 -61.213176
29.259103 38.428362 -61.353559
31.083501 38.028829 -61.478690
32.818046 37.384828 -61.596027
34.513328 36.634004 -61.709958
36.140324 35.697388 -61.817966
38.021681 35.452826 -61.948037
39.756226 34.808825 -62.065374
41.394549 33.903029 -62.174365
43.021545 32.966413 -62.282372
44.959861 32.876823 -62.417385
46.648775 32.108670 -62.530764
48.165032 30.870763 -62.629166
49.635657 29.508703 -62.723609
51.370202 28.864702 -62.840946
52.840828 27.502642 -62.935390
54.410514 26.410102 -63.038427
56.045998 25.496582 -63.147171
56.823407 23.814068 -63.191152
58.557952 23.170067 -63.308489
60.181911 22.474946 -63.417776
61.069906 20.843553 -63.469807
61.847315 19.161039 -63.513788
63.317940 17.798979 -63.608232
64.788566 16.436919 -63.702676
65.565975 14.754406 -63.746657
66.541314 13.163389 -63.805047
67.601214 11.611463 -63.869592
68.591418 10.027318 -63.929063
68.740659 8.054421 -63.927317
69.800559 6.502495 -63.991862
69.880103 4.497378 -63.985043
70.314620 2.656355 -64.004063
71.019548 0.940336 -64.042768
71.099092 -1.064781 -64.035949
71.178636 -3.069897 -64.029129
70.452423 -4.777123 -63.967794
70.324530 -6.705549 -63.946940
70.404074 -8.710666 -63.940120
70.483618 -10.715782 -63.933301
69.549968 -12.346318 -63.857931
69.393252 -14.264088 -63.835127
68.695862 -15.981970 -63.775742
67.762212 -17.612505 -63.700373
66.828561 -19.243041 -63.625004
66.110029 -20.953106 -63.564189
64.961261 -22.504112 -63.474266
64.110200 -24.165181 -63.404484
62.752067 -25.638784 -63.300396
62.110371 -27.377256 -63.244779
60.752238 -28.850859 -63.140691
59.074127 -29.629427 -63.018516
57.715994 -31.103030 -62.914427
56.357861 -32.576633 -62.810339
54.999728 -34.050236 -62.706251
53.321617 -34.828804 -62.584076
51.706563 -35.744341 -62.465465
50.285373 -37.080975 -62.357812
48.927240 -38.554579 -62.253724
47.063411 -38.929743 -62.121051
45.515694 -39.991544 -62.006246
43.572929 -40.195248 -61.869111
42.214796 -41.668851 -61.765023
40.420025 -42.194018 -61.636253
38.858574 -43.225988 -61.520672
36.872074 -43.334692 -61.381065
35.324356 -44.396493 -61.266260
33.504264 -44.866657 -61.136060
31.776405 -45.537166 -61.011072
29.828064 -45.728759 -60.873622
28.228453 -46.677840 -60.755884
26.228219 -46.756713 -60.615501
24.473753 -47.369429 -60.489009
22.680268 -47.897387 -60.360313
20.680033 -47.976260 -60.219929
19.119443 -49.010098 -60.104397
17.132082 -49.116934 -59.964741
15.131847 -49.195807 -59.824358
13.131613 -49.274680 -59.683974
11.131379 -49.353553 -59.543591
9.131145 -49.432426 -59.403207
0.233067 -49.952686 -57.432027
-1.340899 -48.929018 -57.328266
-3.342503 -48.899029 -57.188459
-5.344107 -48.869040 -57.048652
-7.345712 -48.839050 -56.908845
-8.919677 -47.815382 -56.805084
-10.857235 -47.636571 -56.670676
-12.495247 -46.761725 -56.561516
-14.496851 -46.731735 -56.421709
-16.251192 -46.127195 -56.302744
-17.948382 -45.389858 -56.188596
-19.646386 -44.654409 -56.074380
-21.645150 -44.617819 -55.934812
-23.221955 -43.600752 -55.830812
-24.795921 -42.577084 -55.727050
-26.736720 -42.405806 -55.592369
-28.371490 -41.523426 -55.483482
-29.828714 -40.228493 -55.389561
-31.519420 -39.476089 -55.275960
-33.093386 -38.452421 -55.172199
-34.920285 -38.016480 -55.047118
-35.605538 -36.294217 -55.009827
-37.230984 -35.390170 -54.901727
-38.999919 -34.819542 -54.781531
-40.394722 -33.379567 -54.692872
-41.414699 -32.372806 -54.627752
-42.777166 -30.919966 -54.541433
-44.474356 -30.182628 -54.427286
-45.349839 -28.536047 -54.376223
-46.554413 -27.020391 -54.301336
-47.949217 -25.580416 -54.212676
-49.276498 -24.113577 -54.128905
-50.029274 -22.418178 -54.086726
-50.714528 -20.695915 -54.049435
-52.208182 -19.877603 -53.950023
-53.096971 -18.236315 -53.897997
-53.782225 -16.514052 -53.860707
-54.127930 -14.656704 -53.847999
-54.443182 -12.787240 -53.837495
-55.073277 -11.043033 -53.804198
-55.104139 -9.060427 -53.814284
-56.018624 -7.429362 -53.760397
-55.989570 -5.422919 -53.774821
-55.960515 -3.416476 -53.789244
-55.931461 -1.410033 -53.803667
-54.910946 0.167306 -53.884783
-54.881892 2.173749 -53.899207
-54.852837 4.180192 -53.913630
-54.606693 6.092678 -53.942656
-53.803268 7.763974 -54.009169
-52.782753 9.341313 -54.090285
-52.402221 11.195637 -54.128351
-50.966329 12.593201 -54.237408
-50.231505 14.294187 -54.299307
-48.795612 15.691751 -54.408364
-48.060789 17.392737 -54.470262
-46.624896 18.790301 -54.579320
-45.639146 20.382687 -54.658097
-44.388051 21.721978 -54.753870
-42.736376 22.575023 -54.874656
-41.300484 23.972587 -54.983713
-39.864591 25.370151 -55.092770
-38.428699 26.767715 -55.201828
-36.772122 27.608389 -55.322880
-35.169199 28.584460 -55.441017
-33.557199 29.537624 -55.559646
-31.963354 30.536600 -55.677289
-30.360432 31.512671 -55.795425
-28.685700 32.307532 -55.917465
-27.154587 33.464811 -56.031698
-25.250093 33.679877 -56.166226
-23.550061 34.410893 -56.289641
-21.947138 35.386963 -56.407777
-20.096683 35.738394 -56.539369
-18.342612 36.333044 -56.665721
-16.379166 36.399347 -56.803454
-14.738085 37.279125 -56.923664
-12.943559 37.771692 -57.052215
-11.133558 38.225206 -57.181607
-9.131954 38.195217 -57.321414
-7.226327 38.407426 -57.456004
-5.527427 39.141298 -57.579357
-3.525822 39.111309 -57.719164
-1.922900 40.087379 -57.837301
0.078705 40.057390 -57.977108
2.080309 40.027401 -58.116915
4.081913 39.997412 -58.256721
6.083518 39.967422 -58.396528
8.085122 39.937433 -58.536335
10.086727 39.907444 -58.676142
12.088331 39.877455 -58.815949
14.089936 39.847466 -58.955756
16.091540 39.817476 -59.095563
17.665505 38.793808 -59.199324
19.667110 38.763819 -59.339131
21.668714 38.733830 -59.478938
23.670318 38.703840 -59.618745
25.305490 37.822392 -59.727666
26.818249 36.656504 -59.826268
28.819853 36.626514 -59.966075
30.397060 35.610379 -60.070109
32.395423 35.572857 -60.209643
34.396214 35.540978 -60.349381
35.970992 34.519199 -60.453211
37.544958 33.495531 -60.556972
39.487785 33.328965 -60.691825
40.882588 31.888990 -60.780484
42.579779 31.151652 -60.894632
44.268457 30.394537 -61.008063
45.974159 29.676976 -61.122928
47.368963 28.237001 -61.211588
48.990353 27.323532 -61.319346
50.564318 26.299864 -61.423108
52.158147 25.322351 -61.528543
53.552950 23.882376 -61.617203
54.947754 22.442401 -61.705862
56.644944 21.705063 -61.820010
57.330198 19.982800 -61.857301
58.996172 19.172929 -61.968817
60.075036 17.667375 -62.034975
61.107445 16.083225 -62.097399
62.706131 15.116999 -62.203243
63.489889 13.623625 -62.248837
64.884692 12.183649 -62.337496
64.955523 10.216945 -62.330305
66.393821 9.061230 -62.423762
66.912807 7.588199 -62.450963
67.218543 5.714949 -62.460777
67.903796 3.992686 -62.498068
68.832555 2.367300 -62.552987
69.274303 0.548161 -62.572648
69.777902 -1.246372 -62.596787
69.748847 -3.252814 -62.582364
69.719793 -5.259257 -62.567941
69.690739 -7.265700 -62.553518
69.661684 -9.272143 -62.539094
69.429642 -11.190733 -62.511017
68.612115 -12.855926 -62.443555
68.583061 -14.862369 -62.429132
67.926240 -16.597114 -62.372481
67.191416 -18.298100 -62.310582
66.512976 -20.023490 -62.252477
66.398274 -21.941511 -62.232609
64.705034 -22.689667 -62.109564
63.970210 -24.390654 -62.047665
62.534317 -25.788217 -61.938608
61.799493 -27.489204 -61.876710
61.064670 -29.190190 -61.814811
59.346866 -29.876362 -61.690431
57.910974 -31.273926 -61.581373
57.176150 -32.974912 -61.519475
55.740257 -34.372476 -61.410418
54.022454 -35.058648 -61.286037
52.304651 -35.744821 -61.161656
50.868758 -37.142385 -61.052599
49.150955 -37.828557 -60.928218
47.715062 -39.226121 -60.819161
46.279169 -40.623685 -60.710104
44.561366 -41.309857 -60.585723
42.843563 -41.996029 -60.461342
41.078907 -42.563973 -60.334415
39.407956 -43.368374 -60.212581
37.690153 -44.054546 -60.088200
35.972349 -44.740719 -59.963820
34.268536 -45.462194 -59.840199
32.665614 -46.438265 -59.722063
30.664009 -46.408276 -59.582256
29.061087 -47.384346 -59.464120
27.059482 -47.354357 -59.324313
25.101708 -47.434970 -59.186888
23.454956 -48.300438 -59.066370
21.453351 -48.270449 -58.926563
19.850429 -49.246519 -58.808426
17.848824 -49.216530 -58.668619
15.847220 -49.186541 -58.528812
13.949155 -49.417829 -58.394633
12.242693 -50.132622 -58.270869
10.241089 -50.102632 -58.131062
8.239484 -50.072643 -57.991255
6.237880 -50.042654 -57.851448
4.236275 -50.012665 -57.711641
2.234671 -49.982676 -57.571834
-14.218372 -38.762564 -9.436390
-15.867860 -37.882769 -9.215289
-17.857754 -38.030355 -8.980538
-19.847649 -38.177940 -8.745788
-21.837544 -38.325526 -8.511037
-23.827439 -38.473111 -8.276287
-25.476926 -37.593317 -8.055185
-27.410153 -37.569873 -7.822707
-29.116308 -36.861108 -7.599334
-31.106203 -37.008693 -7.364583
-33.096098 -37.156279 -7.129833
-34.638836 -35.954306 -6.913012
-36.395073 -35.396690 -6.687630
-38.373530 -35.509756 -6.453338
-40.034455 -34.664481 -6.231779
-41.683942 -33.784687 -6.010678
-43.614514 -33.753230 -5.778306
-45.323325 -33.052478 -5.554826
-47.108504 -32.582213 -5.328284
-48.622299 -31.292889 -5.112624
-50.602493 -31.411196 -4.878262
-52.261681 -30.560680 -4.656772
-53.658412 -30.018565 -4.474917
-54.922889 -28.584260 -4.285323
-56.429180 -27.272284 -4.069964
-58.176175 -26.686776 -3.844953
-59.923169 -26.101267 -3.619942
-61.578425 -25.238883 -3.398610
-63.176454 -24.203783 -3.179572
-64.132929 -22.613664 -3.022796
-65.606299 -21.529090 -2.817400
-66.576263 -20.306437 -2.668727
-68.323257 -19.720928 -2.443717
-69.419892 -18.201714 -2.272007
-70.703480 -16.896471 -2.083535
-71.582624 -15.752534 -1.947836
-72.549472 -14.167663 -1.789955
-73.375879 -12.511744 -1.647038
-74.202286 -10.855825 -1.504121
-75.948999 -10.270174 -1.279141
-76.089320 -8.267175 -1.209327
-76.922211 -6.614536 -1.065719
-78.252052 -5.817995 -0.885157
-78.392373 -3.814996 -0.815343
-78.962252 -2.029303 -0.699760
-79.634516 -0.295406 -0.573267
-79.774838 1.707593 -0.503454
-79.915159 3.710593 -0.433640
-80.055480 5.713592 -0.363827
-80.195802 7.716592 -0.294013
-80.336123 9.719591 -0.224200
-80.476445 11.722591 -0.154386
-80.407323 13.655836 -0.111537
-79.737728 15.389096 -0.145995
-79.233224 17.177339 -0.159198
-78.646174 18.938090 -0.183028
-78.119973 20.719107 -0.199025
-77.472074 22.459593 -0.230690
-76.164228 23.980286 -0.347318
-75.482858 25.709624 -0.383291
-75.623179 27.712623 -0.313478
-74.063603 28.579103 -0.477602
-72.804830 30.116140 -0.587913
-71.829231 31.177111 -0.676854
-70.521385 32.697804 -0.793482
-69.843688 34.276064 -0.833012
-68.287013 35.295812 -0.992734
-68.327814 37.265666 -0.935733
-66.474640 37.532336 -1.150936
-65.126116 38.971134 -1.274609
-63.478794 39.808391 -1.450030
-62.170948 41.329084 -1.566658
-60.863102 42.849777 -1.683287
-58.925625 43.102890 -1.908959
-57.892544 44.632226 -1.992405
-56.486199 45.288082 -2.143724
-54.994610 46.438861 -2.292174
-53.466593 47.516304 -2.446933
-51.699966 48.113374 -2.643016
-49.966895 48.778000 -2.833288
-48.405322 49.787887 -2.993858
-46.758000 50.625143 -3.169280
-45.110678 51.462399 -3.344701
-43.447591 52.267918 -3.522852
-41.457696 52.415504 -3.757603
-39.829236 53.290732 -3.929757
-37.957998 53.677200 -4.143958
-36.448195 54.791311 -4.295562
-34.458300 54.938897 -4.530313
-32.900471 55.956321 -4.690235
-30.958603 56.200593 -4.916668
-28.968708 56.348178 -5.151419
-27.458905 57.462289 -5.303023
-25.469010 57.609875 -5.537774
-23.479115 57.757460 -5.772524
-21.489220 57.905046 -6.007275
-19.499325 58.052631 -6.242026
-17.509431 58.200217 -6.476776
-15.519536 58.347802 -6.711527
-13.529641 58.495388 -6.946277
-11.539746 58.642973 -7.181028
-9.549851 58.790558 -7.415778
-7.559957 58.938144 -7.650529
-5.707750 58.670175 -7.879759
-3.920574 58.205935 -8.106381
-1.930680 58.353520 -8.341131
-0.226061 57.640116 -8.564443
1.708703 57.621312 -8.796983
3.358190 56.741517 -9.018084
5.348085 56.889103 -9.252835
7.337980 57.036688 -9.487585
8.990321 56.165508 -9.708801
10.977362 56.304479 -9.943437
12.626849 55.424685 -10.164538
14.616744 55.572270 -10.399288
15.539121 54.205998 -10.546053
17.335538 53.769651 -10.773046
19.033110 53.034981 -10.996075
20.634513 52.010062 -11.215248
22.527100 51.863964 -11.446097
24.273895 51.277853 -11.671100
25.923383 50.398059 -11.892201
27.572870 49.518264 -12.113302
29.274374 48.795462 -12.336489
30.780665 47.483486 -12.551848
32.521332 46.878881 -12.776606
34.033950 45.586002 -12.992219
35.540240 44.274026 -13.207578
37.287235 43.688518 -13.432589
38.113642 42.032599 -13.575506
39.848181 41.409499 -13.800017
40.687043 39.791171 -13.943434
42.434038 39.205663 -14.168444
43.260445 37.549744 -14.311361
44.262192 35.982528 -14.472961
45.593142 34.581849 -14.669637
46.465836 32.949347 -14.817486
47.925839 31.613955 -15.027914
48.752246 29.958036 -15.170830
49.771302 28.399576 -15.334274
50.873124 26.882985 -15.506537
51.013445 24.879986 -15.576350
52.057873 23.334360 -15.742498
52.255589 21.360396 -15.818427
52.395910 19.357396 -15.888240
53.497732 17.840806 -16.060503
53.638053 15.837807 -16.130316
53.778375 13.834807 -16.200130
53.918696 11.831808 -16.269943
54.059018 9.828808 -16.339757
53.179979 8.165303 -16.278335
53.320301 6.162303 -16.348148
52.611255 4.442182 -16.308612
52.024206 2.681431 -16.284781
51.702546 0.832292 -16.295118
50.850106 -0.840072 -16.237120
50.963829 -2.834213 -16.303509
49.676006 -4.361575 -16.189459
48.368161 -5.882268 -16.072831
47.781111 -7.643019 -16.049000
47.074615 -9.163301 -16.004483
45.546739 -10.241027 -15.849749
44.959689 -12.001779 -15.825918
44.185659 -13.386099 -15.769705
42.725317 -14.599786 -15.626666
41.166053 -15.614320 -15.466496
39.770149 -16.957736 -15.334617
38.462304 -18.478429 -15.217989
37.116735 -19.923179 -15.094828
35.507136 -20.836379 -14.925940
34.677309 -22.108370 -14.860063
32.933288 -22.750950 -14.667895
32.237884 -24.293562 -14.625299
30.359440 -24.665521 -14.409850
29.051594 -26.186214 -14.293222
27.404272 -27.023470 -14.117801
25.718580 -27.783480 -13.935734
23.770152 -28.014546 -13.708165
22.218882 -29.045176 -13.549379
20.709079 -30.159287 -13.397775
19.167662 -31.209752 -13.240695
17.209381 -31.420984 -13.011420
15.533541 -32.200828 -12.831060
13.886219 -33.038085 -12.655638
12.199880 -33.796791 -12.473460
10.209985 -33.944376 -12.238709
8.604777 -34.866417 -12.070582
6.710287 -35.206073 -11.852354
4.720392 -35.353658 -11.617604
3.210589 -36.467769 -11.465999
1.220695 -36.615355 -11.231248
-0.769200 -36.762940 -10.996498
-2.297583 -37.839646 -10.841675
-4.268898 -38.024636 -10.610143
-6.258793 -38.172222 -10.375392
-8.248688 -38.319807 -10.140642
-10.238583 -38.467393 -9.905891
-12.228477 -38.614978 -9.671141
-10.757552 -22.630113 39.828588
-12.413466 -21.745098 39.983390
-14.414398 -21.885926 40.124736
-16.264474 -21.578211 40.271965
-18.071245 -21.141738 40.420883
-20.072177 -21.282565 40.562230
-21.771396 -20.526308 40.715342
-23.525715 -19.933880 40.866306
-25.384938 -19.653362 41.013179
-27.040852 -18.768346 41.167980
-28.788673 -18.156597 41.319197
-30.352680 -16.998315 41.477583
-32.053346 -16.246361 41.630639
-33.807665 -15.653933 41.781603
-35.318019 -14.336124 41.942081
-36.828373 -13.018316 42.102559
-38.338728 -11.700508 42.263037
-39.585376 -10.251034 42.409158
-40.675487 -8.723404 42.546758
-42.185841 -7.405595 42.707236
-43.012246 -5.746299 42.830479
-43.994501 -4.164817 42.962206
-45.096782 -2.643263 43.100468
-46.175410 -1.109900 43.237443
-46.334094 0.882781 43.324334
-46.469125 2.887271 43.409938
-46.604156 4.891761 43.495542
-46.739186 6.896251 43.581146
-46.874217 8.900741 43.666750
-46.263864 10.655379 43.688282
-46.121399 12.566853 43.750033
-45.233550 14.228475 43.747711
-45.198830 16.176064 43.818724
-43.879438 17.693033 43.779308
-43.283332 19.452446 43.802064
-41.963940 20.969415 43.762649
-40.644548 22.486384 43.723233
-39.325157 24.003352 43.683817
-38.005765 25.520321 43.644401
-36.347443 26.352934 43.554295
-35.028051 27.869903 43.514879
-33.445632 28.855777 43.436126
-31.924020 29.964429 43.366466
-30.392015 31.052097 43.295252
-28.733692 31.884710 43.205146
-26.879863 32.322563 43.085800
-25.358251 33.431216 43.016141
-23.357319 33.572043 42.874794
-21.761472 34.530805 42.794032
-20.103150 35.363418 42.703926
-18.313162 35.930177 42.594129
-16.312229 36.071004 42.452782
-14.311297 36.211832 42.311436
-12.310364 36.352660 42.170090
-10.309432 36.493487 42.028744
-8.308499 36.634315 41.887397
-6.307567 36.775142 41.746051
-4.306635 36.915970 41.604705
-2.421664 36.712008 41.458836
-0.649788 36.171782 41.308557
1.330939 36.252533 41.166423
3.007059 35.427594 41.012410
4.839577 35.067678 40.864495
6.663905 34.683406 40.716262
8.348216 33.882822 40.562568
10.102535 33.290394 40.411604
11.976666 33.054203 40.265313
12.927224 31.764051 40.146912
14.681543 31.171624 39.995948
16.361512 30.358132 39.842084
17.946216 29.261387 39.684506
19.456570 27.943579 39.524028
20.984236 26.677242 39.364225
22.721244 26.033343 39.212586
23.547649 24.374047 39.089343
25.113814 23.687677 38.948623
25.444424 21.780837 38.852371
26.954778 20.463028 38.691893
27.781183 18.803732 38.568650
28.607588 17.144437 38.445407
29.657969 15.596970 38.309971
29.793000 13.592480 38.224367
29.928031 11.587990 38.138763
30.063062 9.583499 38.053159
30.198093 7.579009 37.967555
30.333124 5.574519 37.881951
29.934615 3.748871 37.842210
29.580306 1.908408 37.798669
28.742403 0.230044 37.796697
28.827488 -1.757704 37.715386
27.550190 -3.288783 37.751184
26.954084 -5.048196 37.728427
26.163941 -6.742569 37.722349
24.699655 -7.640222 37.795776
23.988574 -9.167483 37.790215
22.445226 -10.232248 37.863126
20.945349 -11.384789 37.929535
19.467512 -12.581830 37.992647
17.902125 -13.602095 38.068854
16.489798 -14.931412 38.122169
14.858901 -15.819400 38.208173
13.337289 -16.928053 38.277833
11.815677 -18.036706 38.347493
10.195439 -18.946219 38.431903
8.293132 -19.286187 38.558499
6.292200 -19.427014 38.699845
4.770588 -20.535667 38.769505
2.769655 -20.676495 38.910851
1.225966 -21.740571 38.983812
-0.752889 -21.925975 39.121857
-2.753822 -22.066803 39.263203
-4.754754 -22.207631 39.404549
-6.755687 -22.348458 39.545896
-8.756619 -22.489286 39.687242
