ply
format ascii 1.0
element vertex 1286
property float x
property float y
property float z
end_header
-13.710304 -22.075610 -81.788715
-15.307537 -21.075860 -81.780775
-17.318487 -21.075860 -81.742667
-18.915721 -20.076109 -81.734727
-20.926671 -20.076109 -81.696618
-22.578342 -19.207908 -81.684709
-24.534854 -19.076358 -81.650569
-26.545804 -19.076358 -81.612461
-28.143038 -18.076607 -81.604521
-29.740271 -17.076857 -81.596581
-31.738922 -17.047136 -81.559369
-33.348455 -16.077106 -81.550532
-35.169121 -15.617283 -81.526299
-36.591679 -14.195426 -81.531097
-38.306778 -13.480500 -81.514563
-39.737389 -12.078103 -81.518773
-41.736977 -12.050646 -81.481493
-43.159535 -10.628789 -81.486291
-44.582093 -9.206932 -81.491089
-46.297192 -8.492006 -81.474554
-47.710303 -7.651978 -81.466536
-48.727993 -6.062402 -81.482752
-50.150551 -4.640545 -81.487550
-51.573109 -3.218687 -81.492348
-52.711684 -2.264932 -81.492073
-54.003910 -0.789084 -81.500547
-54.719612 0.925594 -81.525280
-56.142170 2.347451 -81.530078
-56.857872 4.062128 -81.554811
-57.714164 5.718565 -81.575579
-57.715015 7.729375 -81.620473
-58.715511 9.326074 -81.637174
-59.716007 10.922773 -81.653876
-59.716858 12.933583 -81.698770
-59.717709 14.944392 -81.743664
-59.718560 16.955202 -81.788558
-59.719410 18.966012 -81.833452
-59.675597 20.958325 -81.878779
-58.721116 22.573520 -81.932942
-58.721967 24.584330 -81.977836
-57.722822 26.181029 -82.032432
-57.525697 28.109855 -82.079246
-56.724528 29.788538 -82.131921
-55.725383 31.385238 -82.186517
-54.675841 32.961067 -82.241602
-53.727093 34.578636 -82.295709
-52.727948 36.175335 -82.350304
-51.825984 37.812278 -82.403957
-50.855565 38.909186 -82.446846
-49.104099 39.534952 -82.494014
-47.682744 40.956809 -82.552705
-46.261389 42.378666 -82.611397
-44.546895 43.093593 -82.659856
-43.125540 44.515450 -82.718547
-41.691802 45.907441 -82.776807
-39.989691 46.652233 -82.825698
-38.275197 47.367160 -82.874156
-36.853842 48.789017 -82.932848
-34.891689 48.906694 -82.972660
-33.295301 49.906444 -83.025241
-31.698914 50.906195 -83.077823
-29.702725 50.941793 -83.116447
-28.091576 51.905946 -83.168513
-26.495188 52.905697 -83.221094
-24.484239 52.905697 -83.259203
-22.844747 53.801499 -83.310280
-20.876901 53.905447 -83.349893
-18.865951 53.905447 -83.388002
-17.269564 54.905198 -83.440584
-15.258614 54.905198 -83.478693
-13.247664 54.905198 -83.516801
-11.236714 54.905198 -83.554910
-9.225764 54.905198 -83.593019
-7.214815 54.905198 -83.631128
-5.203865 54.905198 -83.669237
-3.192915 54.905198 -83.707345
-1.181965 54.905198 -83.745454
0.828985 54.905198 -83.783563
2.839935 54.905198 -83.821672
4.850884 54.905198 -83.859781
6.448118 53.905447 -83.867720
8.459068 53.905447 -83.905829
10.114048 53.045243 -83.917980
12.067251 52.905697 -83.951878
14.078201 52.905697 -83.989987
15.675435 51.905946 -83.997926
17.272668 50.906195 -84.005866
19.274628 50.884471 -84.043320
20.880852 49.906444 -84.051915
22.478085 48.906694 -84.059855
24.127385 48.032761 -84.071591
26.086269 47.906943 -84.105903
27.557584 46.602907 -84.104661
29.272683 45.887981 -84.121196
30.695241 44.466124 -84.116398
32.117799 43.044267 -84.111600
33.832898 42.329340 -84.128135
35.254004 41.492625 -84.136378
36.267507 39.908937 -84.120214
37.978799 39.184810 -84.136471
39.401357 37.762953 -84.131673
40.823915 36.341095 -84.126875
41.539616 34.626418 -84.102142
42.962174 33.204561 -84.097344
44.256519 31.729591 -84.088930
45.100434 30.068027 -84.067813
46.257511 28.536192 -84.055528
46.258362 26.525382 -84.010634
47.247540 24.923995 -83.993613
47.259708 22.917873 -83.949038
47.260559 20.907064 -83.904144
47.980934 19.194322 -83.879543
48.261906 17.299555 -83.842549
48.262757 15.288745 -83.797655
48.263608 13.277936 -83.752761
48.264458 11.267126 -83.707867
47.265313 9.670427 -83.653271
47.266164 7.659617 -83.608377
46.369934 6.020300 -83.554780
46.267870 4.052108 -83.508887
44.648292 3.297876 -83.461350
43.934041 1.583198 -83.409518
43.219790 -0.131479 -83.357686
42.271043 -1.749048 -83.303579
40.791045 -2.561083 -83.257396
39.369690 -3.982940 -83.198704
38.655439 -5.697617 -83.146873
36.940945 -6.412544 -83.098414
36.206739 -8.079100 -83.047279
34.512199 -8.842148 -82.998124
33.013964 -10.078601 -82.942116
31.376350 -10.978931 -82.890974
30.406870 -12.078103 -82.848053
28.810483 -13.077854 -82.795471
27.214095 -14.077604 -82.742890
25.518616 -14.838388 -82.693768
23.804122 -15.553315 -82.645310
22.089627 -16.268242 -82.596851
20.413982 -17.076857 -82.547037
18.817595 -18.076607 -82.494455
16.946144 -18.413021 -82.451477
15.210257 -19.076358 -82.403765
13.224015 -19.135944 -82.364794
11.602920 -20.076109 -82.313075
9.591970 -20.076109 -82.274966
7.995582 -21.075860 -82.222385
5.984632 -21.075860 -82.184276
3.973683 -21.075860 -82.146167
1.962733 -21.075860 -82.108058
0.049996 -21.312708 -82.066521
-1.644605 -22.075610 -82.017368
-3.655555 -22.075610 -81.979259
-5.666504 -22.075610 -81.941151
-7.677454 -22.075610 -81.903042
-9.688404 -22.075610 -81.864933
-11.699354 -22.075610 -81.826824
3.174258 -47.028473 13.240703
1.528159 -46.130374 13.450943
-0.471130 -46.255420 13.662604
-2.470419 -46.380467 13.874266
-4.116518 -45.482368 14.084506
-6.115807 -45.607415 14.296168
-8.115096 -45.732462 14.507829
-9.796712 -44.937250 14.718212
-11.760484 -44.959410 14.929731
-13.538381 -44.443111 15.140501
-15.405872 -44.186357 15.351632
-16.345453 -42.889462 15.499817
-18.116663 -42.353794 15.710560
-19.837379 -41.671849 15.921101
-21.583342 -41.063043 16.131743
-23.079563 -39.730763 16.341380
-24.825526 -39.121957 16.552022
-26.218122 -38.339765 16.730690
-27.411852 -36.928834 16.910449
-29.289219 -36.915664 17.113896
-30.189927 -35.291185 17.269648
-31.686148 -33.958905 17.479285
-33.182368 -32.626625 17.688922
-34.678589 -31.294345 17.898560
-36.174809 -29.962065 18.108197
-36.986175 -28.293749 18.255865
-37.854266 -26.653265 18.408666
-38.939483 -25.119318 18.581114
-39.420274 -23.288798 18.698870
-40.141386 -21.576196 18.838371
-41.043007 -19.952164 18.994206
-41.343289 -18.033074 19.095629
-41.459976 -16.023899 19.180440
-41.576662 -14.014724 19.265250
-41.693349 -12.005549 19.350060
-41.810036 -9.996374 19.434870
-41.338754 -8.190264 19.448815
-41.026890 -6.329096 19.481974
-40.832715 -4.427282 19.529318
-39.501514 -2.918159 19.439620
-39.343911 -1.003714 19.491372
-38.444079 0.654389 19.453665
-37.664274 2.353946 19.430426
-36.333073 3.863068 19.340728
-35.709622 5.597570 19.335648
-34.057794 6.442450 19.187418
-33.230542 7.754737 19.145133
-31.782515 9.021832 19.034108
-30.170054 9.948269 18.893065
-28.788449 11.352969 18.794166
-27.457248 12.862092 18.704468
-25.794382 13.684106 18.554223
-24.131517 14.506119 18.403978
-22.800316 16.015242 18.314281
-20.988591 16.528864 18.136860
-19.142920 16.972161 17.953243
-18.509510 18.686031 17.946345
-16.510222 18.811078 17.734684
-14.873111 19.686448 17.589140
-12.980689 20.032891 17.396988
-11.450445 21.129657 17.270954
-9.451156 21.254704 17.059292
-7.451867 21.379750 16.847631
-5.895453 22.422298 16.716819
-3.922335 22.601563 16.509936
-1.923046 22.726610 16.298274
0.076243 22.851657 16.086613
2.075532 22.976704 15.874951
4.074820 23.101751 15.663290
6.074109 23.226798 15.451628
8.068023 23.336276 15.239988
9.719497 22.453746 15.029726
11.718786 22.578792 14.818065
13.718075 22.703839 14.606403
15.364174 21.805740 14.396163
17.297324 21.739192 14.184768
19.009562 21.032688 13.974261
21.008851 21.157735 13.762600
22.654951 20.259636 13.552360
24.301050 19.361536 13.342119
26.276883 19.418634 13.130552
27.946438 18.588484 12.920218
29.519066 17.477548 12.710273
31.238637 16.792286 12.499737
32.388688 15.954590 12.345298
33.949428 14.959723 12.140809
35.595527 14.061623 11.930569
37.314285 13.374007 11.720036
38.810506 12.041727 11.510399
40.306726 10.709447 11.300762
41.737712 9.345159 11.097027
42.614313 7.708850 10.943456
43.908146 6.277265 10.752132
44.921900 4.708254 10.586151
46.044646 3.793654 10.431901
46.794375 2.095093 10.289810
47.246549 0.250532 10.174643
48.331766 -1.283415 10.002195
48.448452 -3.292590 9.917385
49.354986 -4.914211 9.761105
49.650356 -6.835712 9.660127
49.767042 -8.844887 9.575317
49.883729 -10.854062 9.490506
50.000415 -12.863237 9.405696
50.117102 -14.872412 9.320886
49.640664 -16.676742 9.307562
49.028251 -18.434110 9.310627
48.434123 -20.197793 9.311488
48.522212 -22.197091 9.230125
47.650977 -23.865071 9.264384
46.246933 -24.776473 9.383435
44.915732 -26.285596 9.473132
44.917546 -28.255098 9.402167
43.359240 -29.113224 9.539810
42.591272 -30.548328 9.571273
41.061028 -31.645094 9.697307
39.421096 -32.514619 9.843365
38.089895 -34.023742 9.933062
36.758694 -35.532865 10.022760
35.095829 -36.354879 10.173005
33.432963 -37.176893 10.323250
32.101762 -38.686015 10.412947
30.770561 -40.195138 10.502645
29.107696 -41.017152 10.652890
27.288833 -41.515987 10.831613
25.289544 -41.641034 11.043275
23.759300 -42.737800 11.169309
21.792903 -42.930989 11.374965
20.229768 -43.959613 11.507004
18.467172 -44.575017 11.675456
16.700235 -45.181425 11.844700
14.700946 -45.306472 12.056361
12.701657 -45.431519 12.268023
10.820715 -45.801745 12.458079
9.172125 -46.653332 12.605718
7.172836 -46.778379 12.817380
5.173547 -46.903426 13.029041
-8.052771 -45.107272 14.787605
-9.591706 -44.044744 14.992167
-11.585832 -43.964143 15.210660
-13.579957 -43.883543 15.429152
-15.375651 -43.374889 15.641572
-17.045436 -42.594630 15.850139
-18.651952 -41.677887 16.056770
-20.385007 -41.034112 16.267273
-21.732924 -39.559525 16.465990
-23.402709 -38.779266 16.674556
-25.262881 -38.409703 16.888950
-26.801816 -37.347176 17.093512
-28.412066 -36.438489 17.300257
-29.879685 -35.222121 17.502637
-31.429768 -34.183644 17.707540
-32.777685 -32.709057 17.906257
-34.125602 -31.234471 18.104974
-35.473519 -29.759885 18.303690
-36.821435 -28.285299 18.502407
-38.169352 -26.810713 18.701124
-39.018289 -25.151870 18.852513
-40.150031 -23.597458 19.030726
-40.865285 -21.889251 19.169437
-41.788783 -20.257941 19.327898
-42.048319 -18.381452 19.423385
-42.624397 -16.621852 19.548895
-43.313843 -14.904115 19.685158
-43.460012 -12.985763 19.769892
-43.372128 -10.980985 19.832427
-43.284245 -8.976206 19.894962
-43.196362 -6.971427 19.957497
-43.108478 -4.966648 20.020032
-43.020595 -2.961869 20.082567
-41.957594 -1.410852 20.023372
-40.959596 0.170414 19.972292
-40.806709 2.144944 20.026712
-39.743708 3.695961 19.967516
-38.611526 5.214786 19.899685
-37.617706 6.797996 19.849126
-36.356633 8.256842 19.765204
-34.884430 9.617442 19.654925
-33.412228 10.978041 19.544646
-32.390583 12.548303 19.490614
-30.897371 13.302253 19.356265
-29.165205 13.945008 19.192087
-27.693003 15.305608 19.081808
-26.213702 16.646607 18.970058
-24.488634 17.308962 18.807351
-22.960739 18.515776 18.685525
-21.284265 19.312317 18.532893
-19.340131 19.369759 18.324766
-17.713650 20.304343 18.182499
-16.087168 21.238927 18.040233
-14.355601 21.883337 17.876178
-12.466561 22.092910 17.679473
-10.472435 22.012309 17.460981
-8.845953 22.946893 17.318714
-6.851828 22.866292 17.100222
-5.174844 23.661425 16.947484
-3.231220 23.720276 16.739462
-1.237095 23.639675 16.520970
0.757031 23.559074 16.302477
2.751156 23.478473 16.083984
4.745282 23.397872 15.865492
6.739408 23.317271 15.646999
8.733533 23.236670 15.428506
10.727659 23.156069 15.210014
12.266593 22.093542 15.005451
14.260719 22.012941 14.786959
16.101640 21.601852 14.573155
17.793779 20.869813 14.363904
19.763080 20.735660 14.146171
21.326839 19.726684 13.940849
23.102651 19.175142 13.729037
24.859899 18.583556 13.517793
26.442222 17.614624 13.311903
27.937768 16.458501 13.108669
29.781793 16.054106 12.894770
31.451578 15.273846 12.686203
33.009763 14.252845 12.481051
34.469280 13.019001 12.278919
35.817197 11.544415 12.080203
37.171375 10.083336 11.881294
38.834900 9.289570 11.672919
40.182816 7.814983 11.474203
40.958719 6.129172 11.329740
42.163496 4.601729 11.144600
43.511412 3.127142 10.945883
44.144175 1.388474 10.814997
45.689733 0.562342 10.618213
45.731568 -1.394536 10.543374
46.525347 -3.073747 10.397216
47.448845 -4.705057 10.238754
47.360962 -6.709836 10.176219
48.262618 -8.349211 10.019829
48.196576 -10.345924 9.955222
48.108693 -12.350703 9.892687
48.020810 -14.355482 9.830152
47.932926 -16.360261 9.767617
47.845043 -18.365040 9.705082
47.056940 -20.043978 9.729960
46.274250 -21.725435 9.754162
45.631157 -23.471853 9.760938
44.708870 -25.088350 9.802567
44.480273 -27.027649 9.757598
42.883526 -27.733420 9.904871
42.100836 -29.414877 9.929074
41.316911 -31.095760 9.953430
39.845943 -32.456934 10.063554
38.373741 -33.817533 10.173833
37.152790 -35.295050 10.252746
35.762160 -35.874659 10.382269
34.126718 -36.784501 10.526393
32.509197 -37.743827 10.666802
30.922350 -38.787855 10.800850
29.256233 -39.612995 10.951335
27.717981 -40.791210 11.075308
26.003270 -41.482163 11.235867
24.253649 -42.076720 11.403665
22.750306 -43.351331 11.520400
21.049280 -44.080074 11.678123
19.129699 -44.205314 11.881160
17.135573 -44.124713 12.099652
15.332855 -44.572652 12.278459
13.514966 -44.978697 12.460411
11.868523 -45.858162 12.606817
9.894359 -45.832680 12.821171
7.900233 -45.752079 13.039663
5.906108 -45.671478 13.258156
3.911982 -45.590877 13.476649
1.917856 -45.510276 13.695141
-0.076269 -45.429675 13.913634
-2.070395 -45.349074 14.132127
-4.064520 -45.268474 14.350619
-6.058646 -45.187873 14.569112
5.420209 -23.938414 50.757573
3.749720 -23.085542 50.870525
1.754882 -23.265115 50.962723
-0.239956 -23.444687 51.054920
-2.234794 -23.624259 51.147118
-3.905283 -22.771388 51.260070
-5.900120 -22.950960 51.352267
-7.618192 -22.249549 51.462174
-9.382528 -21.695405 51.569121
-11.235936 -21.424790 51.670368
-12.911200 -20.587117 51.783015
-14.901263 -20.751491 51.875518
-16.571751 -19.898619 51.988470
-18.204208 -18.924685 52.103855
-19.912729 -18.192877 52.214373
-21.583218 -17.340005 52.327325
-23.267866 -16.532205 52.439371
-24.802853 -15.248013 52.560993
-26.337840 -13.963821 52.682615
-28.102176 -13.409677 52.789562
-29.637162 -12.125485 52.911184
-31.172149 -10.841294 53.032807
-32.029326 -9.202242 53.133571
-33.564312 -7.918050 53.255194
-35.099299 -6.633858 53.376816
-35.956476 -4.994807 53.477580
-37.479296 -3.704246 53.598828
-37.670829 -1.716705 53.679110
-38.789786 -0.214705 53.787930
-39.385183 1.561398 53.880639
-40.100276 3.274835 53.977032
-40.276237 5.270529 54.056834
-40.452198 7.266223 54.136636
-40.628159 9.261917 54.216439
-40.636604 11.205188 54.286094
-39.948811 12.930580 54.313574
-39.522760 14.737881 54.356909
-39.269462 16.599243 54.410709
-39.138135 18.498775 54.471897
-37.851995 20.036920 54.463132
-37.295074 21.803266 54.498540
-36.008933 23.341412 54.489775
-34.992914 24.964089 54.497373
-34.165872 26.645904 54.516419
-32.879731 28.184049 54.507654
-31.240131 29.044610 54.457277
-29.953990 30.582756 54.448512
-29.282377 32.129239 54.470418
-27.404007 32.532079 54.391932
-26.117867 34.070224 54.383167
-24.478266 34.930786 54.332790
-23.192126 36.468931 54.324026
-21.307664 36.860095 54.244822
-19.812695 37.997916 54.211473
-18.273323 39.050615 54.172896
-16.633722 39.911176 54.122519
-14.827920 40.453130 54.052576
-13.001059 40.954714 53.980154
-11.338113 41.770524 53.927029
-9.343275 41.950096 53.834832
-7.728795 42.858814 53.787412
-5.853469 43.267489 53.709285
-3.858631 43.447061 53.617087
-2.103071 44.085329 53.553059
-0.368824 44.764455 53.491540
1.626014 44.944027 53.399342
3.620852 45.123599 53.307145
5.615689 45.303172 53.214947
7.610527 45.482744 53.122750
9.605365 45.662316 53.030552
11.531876 45.624394 52.933983
13.270692 44.989017 52.825403
15.265530 45.168589 52.733205
17.054233 44.692010 52.627818
18.930856 44.495290 52.528056
20.925694 44.674862 52.435858
22.596183 43.821991 52.322907
24.340927 43.205482 52.214706
26.261510 43.148692 52.117757
27.931999 42.295821 52.004805
29.633935 41.543049 51.893866
31.398271 40.988905 51.786919
33.162607 40.434761 51.679972
34.926943 39.880617 51.573026
36.608792 39.063908 51.460801
38.226265 38.042281 51.344457
39.761252 36.758090 51.222834
41.525588 36.203946 51.115888
43.060575 34.919754 50.994265
44.595561 33.635562 50.872643
46.307376 32.914236 50.762336
47.217074 31.442366 50.664932
48.752061 30.158175 50.543309
49.609237 28.519123 50.442545
51.053232 27.187294 50.323722
52.001401 25.595880 50.220158
52.363722 23.697753 50.134621
53.498251 22.203906 50.025321
53.674212 20.208212 49.945519
54.752298 18.684815 49.837957
54.984702 16.718671 49.756417
55.160663 14.722977 49.676615
55.336624 12.727284 49.596813
55.512585 10.731590 49.517011
55.001730 8.950827 49.478812
54.833236 7.062927 49.419875
53.977927 5.389958 49.402542
54.060183 3.423588 49.328416
52.774043 1.885442 49.337181
52.443268 0.048326 49.288074
51.660200 -1.647251 49.266366
50.732649 -3.297613 49.253409
49.463677 -4.274158 49.281334
48.177537 -5.812304 49.290099
46.891397 -7.350449 49.298864
45.605257 -8.888594 49.307629
43.965656 -9.749156 49.358005
42.679515 -11.287301 49.366770
41.039914 -12.147862 49.417147
39.753774 -13.686008 49.425911
38.114173 -14.546569 49.476288
36.474572 -15.407130 49.526665
34.838269 -16.274014 49.576653
33.343301 -17.411835 49.610002
31.555769 -17.988814 49.677794
29.853494 -18.729228 49.735550
27.923107 -19.032352 49.820159
26.363687 -20.046621 49.861097
24.868718 -21.184442 49.894446
22.873880 -21.364015 49.986644
20.879043 -21.543587 50.078841
19.371641 -22.657574 50.113654
17.389236 -22.860980 50.204388
15.394398 -23.040552 50.296586
13.399560 -23.220125 50.388783
11.404722 -23.399697 50.480981
9.409884 -23.579269 50.573178
7.415047 -23.758841 50.665376
1.444788 -23.831046 50.928451
-0.066120 -22.716373 51.042843
-2.065350 -22.567623 51.146956
-4.064579 -22.418873 51.251068
-5.851239 -21.849651 51.359656
-7.574717 -21.155450 51.469573
-9.573947 -21.006700 51.573686
-11.150612 -20.022099 51.686694
-13.084084 -19.743277 51.792191
-14.594992 -18.628603 51.906583
-16.105900 -17.513930 52.020975
-17.756049 -16.674680 52.132436
-19.616038 -16.250506 52.239480
-20.959742 -15.537485 52.331298
-22.054468 -14.064565 52.437884
-23.635073 -13.087755 52.550809
-25.076284 -11.835218 52.666669
-26.592496 -10.731035 52.780950
-28.098100 -9.605870 52.895454
-29.549919 -8.374314 53.011090
-30.855982 -6.854449 53.129794
-32.162046 -5.334583 53.248499
-33.468109 -3.814717 53.367204
-34.047761 -2.055344 53.458538
-35.353825 -0.535478 53.577243
-35.933476 1.223895 53.668578
-36.578780 2.961621 53.762386
-37.453905 4.623573 53.864854
-38.329029 6.285524 53.967322
-38.978495 8.021878 54.061287
-39.051976 9.948142 54.133550
-38.899799 11.948807 54.197312
-38.747622 13.949472 54.261073
-38.595445 15.950138 54.324834
-38.443268 17.950803 54.388595
-37.326590 19.464558 54.387337
-37.174413 21.465223 54.451098
-36.111896 23.006320 54.453491
-35.905557 24.979643 54.513601
-34.433359 26.313920 54.488376
-33.594090 27.967720 54.505819
-32.072816 29.277222 54.477286
-31.161878 30.712358 54.483396
-29.474183 31.514107 54.428547
-28.634915 33.167907 54.445990
-27.094415 34.418751 54.414417
-25.354276 35.060494 54.351274
-23.833002 36.369996 54.322742
-22.106856 37.054430 54.261812
-20.552364 38.262583 54.228027
-18.792999 38.845668 54.161844
-17.119297 39.690109 54.109208
-15.512361 40.738255 54.067129
-13.794258 41.447228 54.007472
-11.795028 41.298478 53.903359
-10.132509 42.177037 53.852491
-8.469989 43.055597 53.801623
-6.477450 42.927262 53.698569
-4.808240 43.785407 53.646642
-2.809010 43.636657 53.542530
-0.961268 43.950099 53.462372
0.852739 44.366467 53.387549
2.557461 45.116269 53.330008
4.514489 45.096277 53.232569
6.513718 44.947527 53.128456
8.512948 44.798778 53.024344
10.512178 44.650028 52.920231
12.511407 44.501278 52.816119
14.510637 44.352529 52.712006
16.509867 44.203779 52.607894
18.020775 43.089105 52.493501
20.020004 42.940356 52.389389
22.019234 42.791606 52.285276
23.530142 41.676932 52.170884
25.529372 41.528183 52.066771
27.528601 41.379433 51.962659
29.148446 40.480241 51.850560
30.799805 39.643387 51.739124
32.549647 39.001336 51.629762
34.102523 37.969677 51.516253
36.059785 37.737913 51.411257
37.570693 36.623239 51.296864
39.056600 35.459114 51.181946
40.592509 34.393892 51.068080
42.103417 33.279218 50.953687
43.665382 32.265539 50.840370
45.125233 31.049871 50.724903
46.622805 29.908818 50.610230
47.928868 28.388952 50.491525
49.234932 26.869086 50.372821
50.540995 25.349220 50.254116
51.847059 23.829354 50.135411
53.153122 22.309489 50.016707
53.900098 20.605284 49.919068
54.775222 18.943333 49.816600
54.892078 17.031371 49.742702
56.530869 16.169656 49.631002
56.417699 14.202568 49.566509
56.265523 12.201903 49.502748
56.829569 10.437385 49.412001
56.988470 8.539286 49.336519
56.836293 6.538620 49.272758
56.684116 4.537955 49.208997
56.531939 2.537290 49.145236
55.964388 0.746318 49.109476
55.263084 -0.977130 49.082733
54.967856 -2.905579 49.028615
53.446582 -4.215082 49.057148
52.877550 -6.005305 49.021488
51.768045 -7.522682 49.022263
50.644192 -9.032815 49.024004
49.169412 -9.759566 49.071002
48.455241 -11.476520 49.045126
47.252785 -12.340749 49.073766
46.266290 -13.920224 49.066248
44.802394 -15.029922 49.099064
43.132878 -15.887136 49.151039
41.373514 -16.470221 49.217221
40.398221 -17.709007 49.221288
38.536791 -17.980688 49.303610
37.015517 -19.290190 49.332143
35.410662 -20.344685 49.373892
33.496789 -20.456360 49.464507
31.748913 -21.074495 49.528873
29.978060 -21.622530 49.596872
28.087163 -21.804305 49.683853
26.459332 -22.788699 49.729236
24.762124 -23.561424 49.785590
22.762894 -23.412674 49.889702
20.943150 -23.811536 49.965433
19.101145 -24.142484 50.044683
17.101915 -23.993734 50.148795
15.102686 -23.844985 50.252908
13.429513 -24.691041 50.305461
11.440936 -24.574795 50.407889
9.441707 -24.426045 50.512001
7.442477 -24.277295 50.616114
5.443247 -24.128546 50.720226
3.444018 -23.979796 50.824339
-16.301199 -58.203721 -45.303641
-17.783401 -57.054347 -45.166407
-19.772759 -56.860214 -44.985797
-21.762117 -56.666080 -44.805188
-23.751476 -56.471947 -44.624578
-25.740834 -56.277813 -44.443969
-27.223035 -55.128440 -44.306734
-29.212394 -54.934306 -44.126125
-31.201752 -54.740173 -43.945515
-33.107146 -54.387890 -43.772087
-34.673312 -53.396666 -43.627671
-36.363649 -52.639319 -43.472636
-38.144871 -52.053158 -43.309827
-40.134230 -51.859025 -43.129218
-41.616431 -50.709651 -42.991983
-43.593882 -50.493090 -42.812392
-44.863519 -48.943348 -42.693337
-46.570192 -48.216771 -42.536904
-48.120022 -47.194777 -42.393886
-49.748273 -46.320491 -42.244160
-51.376525 -45.446205 -42.094435
-53.004776 -44.571920 -41.944709
-54.488356 -43.425143 -41.807356
-55.970557 -42.275770 -41.670122
-57.530916 -41.273606 -41.526203
-58.800553 -39.723864 -41.407148
-60.417162 -38.827649 -41.258418
-61.698442 -37.299836 -41.138367
-63.215119 -36.391411 -40.998651
-63.867136 -34.652688 -40.935006
-65.495388 -33.778403 -40.785281
-66.765025 -32.228661 -40.666226
-68.034662 -30.678918 -40.547171
-69.304299 -29.129176 -40.428116
-70.415233 -28.096601 -40.324802
-71.252650 -26.414607 -40.244524
-72.013437 -24.709166 -40.171120
-72.927482 -23.050619 -40.083968
-73.764898 -21.368626 -40.003690
-74.363960 -19.613700 -39.944796
-74.904403 -17.840838 -39.891161
-76.174041 -16.291095 -39.772106
-76.083327 -14.325111 -39.775096
-76.525733 -12.522251 -39.730256
-76.726923 -10.645584 -39.707058
-76.533103 -8.648051 -39.719298
-77.370520 -6.966057 -39.639020
-77.176700 -4.968524 -39.651260
-76.982880 -2.970991 -39.663500
-76.789060 -0.973458 -39.675741
-76.595240 1.024074 -39.687981
-76.334366 2.985728 -39.706386
-75.256368 4.510140 -39.799927
-74.592130 6.255954 -39.855422
-73.917496 7.996206 -39.911873
-72.849894 9.526181 -40.004457
-71.978776 11.161295 -40.078975
-71.107658 12.796408 -40.153493
-70.236540 14.431522 -40.228010
-69.143470 15.947870 -40.322936
-67.998419 17.436402 -40.422642
-66.950564 18.976945 -40.513411
-65.406824 20.252141 -40.649776
-64.526609 21.857259 -40.725197
-62.769929 22.430330 -40.882704
-61.226189 23.705526 -41.019070
-60.233450 25.275561 -41.104770
-58.589293 25.883715 -41.251998
-57.045553 27.158911 -41.388363
-55.369168 27.996740 -41.537899
-53.736035 28.977183 -41.683139
-52.018468 29.679221 -41.836763
-50.426517 30.795455 -41.977915
-48.667768 31.361703 -42.135628
-46.992417 32.202943 -42.285061
-45.317067 33.044184 -42.434493
-43.585445 33.699878 -42.589513
-41.819667 34.242954 -42.747923
-40.053890 34.786030 -42.906334
-38.301659 35.373772 -43.063400
-36.522335 35.872182 -43.223156
-34.636950 36.020879 -43.393442
-32.961600 36.862120 -43.542874
-31.002965 36.769289 -43.720433
-29.296892 37.509227 -43.872916
-27.307533 37.315093 -44.053526
-25.632183 38.156334 -44.202958
-23.717818 38.209472 -44.376122
-21.967475 38.803441 -44.533000
-19.978117 38.609308 -44.713609
-18.198448 39.106580 -44.873399
-16.313408 39.256415 -45.043651
-14.324050 39.062281 -45.224261
-12.334692 38.868148 -45.404870
-10.345333 38.674014 -45.585479
-8.355975 38.479880 -45.766089
-6.366617 38.285747 -45.946698
-4.377259 38.091613 -46.127308
-2.387900 37.897480 -46.307917
-0.398542 37.703346 -46.488527
1.590816 37.509213 -46.669136
3.580175 37.315079 -46.849745
5.569533 37.120946 -47.030355
7.051734 35.971572 -47.167589
9.041093 35.777438 -47.348199
11.030451 35.583305 -47.528808
12.579724 34.560261 -47.671779
14.502011 34.239798 -47.846652
16.194840 33.487147 -48.001901
17.973570 32.896291 -48.164497
19.455772 31.746917 -48.301731
21.445130 31.552784 -48.482341
23.066460 30.665461 -48.631474
24.694711 29.791176 -48.781200
26.398891 29.059903 -48.937419
27.951214 28.042604 -49.080651
29.870451 27.716396 -49.255263
31.207716 26.294033 -49.380102
32.834854 25.417649 -49.529733
34.317055 24.268275 -49.666967
35.799256 23.118902 -49.804202
37.362108 22.121434 -49.948334
38.990359 21.247148 -50.098060
40.259996 19.697406 -50.217115
41.728062 18.521408 -50.353141
43.210263 17.372034 -50.490375
44.056942 16.175973 -50.570201
45.594015 15.129951 -50.712129
46.708009 13.676422 -50.816838
47.495274 11.979083 -50.892617
48.439414 10.895472 -50.980967
49.854361 9.690544 -51.112260
50.563025 8.234530 -51.180282
51.832663 6.684787 -51.299338
52.876887 5.066073 -51.398169
53.642743 3.362183 -51.472027
54.551719 1.702085 -51.558725
55.389136 0.020091 -51.639003
55.993266 -1.733284 -51.698352
56.032732 -3.659436 -51.707041
56.870148 -5.341429 -51.787319
56.885402 -7.274990 -51.793836
57.513744 -9.020956 -51.855357
57.319924 -11.018489 -51.843117
57.126104 -13.016022 -51.830877
57.963521 -14.698016 -51.911155
57.769701 -16.695549 -51.898915
57.575880 -18.693082 -51.886674
57.382060 -20.690615 -51.874434
57.188240 -22.688148 -51.862194
56.043189 -24.176681 -51.762488
55.772964 -26.133330 -51.743223
54.704317 -27.662746 -51.650542
54.510497 -29.660279 -51.638302
53.159610 -31.038670 -51.519670
51.615870 -32.313866 -51.383304
51.075343 -34.125877 -51.339184
49.873634 -35.584093 -51.234269
48.785240 -37.102943 -51.139773
47.640188 -38.591475 -51.040067
46.365621 -39.397396 -50.926823
45.406657 -40.985503 -50.844228
43.950763 -42.307705 -50.715940
42.407022 -43.582901 -50.579575
40.811459 -44.687222 -50.438064
39.097505 -45.401173 -50.284799
38.041410 -46.426367 -50.191915
36.366060 -47.267607 -50.042483
34.694832 -48.122438 -49.893460
33.151092 -49.397634 -49.757094
31.385314 -49.940710 -49.598684
29.841574 -51.215906 -49.462318
28.075796 -51.758982 -49.303908
26.313959 -52.315051 -49.145888
24.544241 -52.845134 -48.987086
22.778464 -53.388209 -48.828676
21.012686 -53.931285 -48.670265
19.298551 -54.644639 -48.516981
17.623201 -55.485880 -48.367549
15.937391 -56.292633 -48.217078
13.958492 -56.132987 -48.037507
12.183799 -56.646664 -47.878211
10.293784 -56.780094 -47.707465
8.618434 -57.621335 -47.558033
6.629076 -57.427201 -47.377423
4.676614 -57.354728 -47.200477
2.964367 -58.074308 -47.047382
1.289017 -58.915549 -46.897949
-0.700341 -58.721415 -46.717340
-2.689700 -58.527282 -46.536730
-4.679058 -58.333148 -46.356121
-6.584163 -58.416822 -46.183877
-8.343766 -58.980255 -46.026079
-10.333125 -58.786122 -45.845470
-12.322483 -58.591988 -45.664860
-14.311841 -58.397855 -45.484251
-8.576592 -60.212288 -44.623310
-10.236858 -59.350017 -44.470718
-12.224314 -59.519151 -44.291246
-14.211769 -59.688286 -44.111774
-15.872036 -58.826015 -43.959182
-17.859491 -58.995150 -43.779709
-19.803508 -59.027351 -43.603806
-21.507213 -58.302014 -43.447645
-23.494669 -58.471148 -43.268173
-25.154935 -57.608877 -43.115581
-27.142391 -57.778012 -42.936109
-28.812235 -56.945933 -42.782730
-30.790113 -57.084876 -42.604045
-32.554540 -56.550955 -42.442895
-34.310014 -55.988808 -42.282481
-36.098101 -55.529469 -42.119388
-37.820962 -54.864516 -41.961654
-39.418634 -53.804927 -41.814204
-41.331910 -53.740223 -41.640826
-43.066356 -53.111791 -41.482140
-44.225417 -52.295371 -41.375043
-45.805561 -51.337777 -41.229451
-47.445288 -50.410760 -41.078547
-49.126094 -49.613235 -40.924267
-50.786360 -48.750964 -40.771675
-52.480352 -47.995007 -40.616313
-54.004469 -46.703547 -40.474906
-55.767160 -46.164151 -40.313899
-57.515416 -45.579254 -40.154079
-58.362373 -43.936230 -40.073040
-59.886489 -42.644770 -39.931634
-61.410606 -41.353310 -39.790227
-62.275430 -39.719562 -39.707596
-63.781679 -38.418826 -39.567783
-65.305795 -37.127365 -39.426376
-66.609935 -35.721699 -39.304580
-67.676868 -34.192881 -39.203931
-68.861173 -32.725000 -39.092819
-69.986792 -31.226650 -38.986938
-70.154763 -29.231115 -38.966431
-71.064695 -27.620786 -38.879779
-71.911651 -25.977763 -38.798740
-72.573971 -24.238880 -38.734163
-72.741942 -22.243345 -38.713656
-73.775362 -20.697128 -38.615994
-74.035531 -18.749460 -38.587268
-74.203502 -16.753924 -38.566761
-74.371472 -14.758389 -38.546254
-74.539443 -12.762854 -38.525747
-73.680283 -11.095597 -38.599097
-73.848253 -9.100062 -38.578590
-74.016224 -7.104526 -38.558083
-73.841959 -5.218372 -38.568849
-73.281680 -3.455591 -38.614888
-72.465874 -1.774478 -38.684276
-71.434830 -0.162157 -38.773332
-70.747555 1.560036 -38.830975
-69.888395 3.227292 -38.904325
-69.027702 4.894059 -38.977815
-67.741131 6.424712 -39.090220
-67.310915 8.229062 -39.124374
-66.270602 9.270432 -39.215786
-64.984032 10.801084 -39.328192
-64.423753 12.563866 -39.374230
-62.805681 13.450554 -39.518357
-61.500642 14.945329 -39.632529
-60.214071 16.475982 -39.744935
-58.577531 17.326793 -39.890829
-57.290960 18.857446 -40.003234
-56.004390 20.388099 -40.115640
-54.367849 21.238909 -40.261533
-53.081279 22.769562 -40.373939
-51.444738 23.620373 -40.519832
-49.867914 24.587187 -40.660012
-48.171657 25.321994 -40.811620
-46.882870 26.848341 -40.924237
-44.895414 27.017476 -41.103709
-43.262034 27.874426 -41.249301
-41.625493 28.725237 -41.395194
-39.922914 29.447764 -41.547407
-38.352412 30.426858 -41.686982
-36.715871 31.277669 -41.832875
-34.950414 31.878053 -41.991105
-33.092818 32.299448 -42.158151
-31.470437 33.177764 -42.302690
-29.482981 33.346899 -42.482162
-27.833225 34.172038 -42.629320
-26.003004 34.646611 -42.793747
-24.510481 35.777187 -42.925860
-22.523026 35.946322 -43.105332
-20.535570 36.115457 -43.284804
-18.548115 36.284592 -43.464276
-16.560659 36.453726 -43.643748
-14.627586 36.728501 -43.818017
-13.080682 37.753438 -43.955333
-11.093226 37.922573 -44.134806
-9.279119 37.545256 -44.300036
-7.445504 37.229436 -44.466870
-5.458049 37.398571 -44.646342
-3.470593 37.567706 -44.825814
-1.483138 37.736841 -45.005286
0.504318 37.905975 -45.184759
2.410512 37.818948 -45.357555
4.152040 37.212839 -45.516823
6.139495 37.381974 -45.696295
7.908291 36.861823 -45.857803
9.787217 36.688838 -46.028359
11.447484 35.826567 -46.180951
13.434939 35.995701 -46.360424
15.161544 35.342551 -46.518466
17.082661 35.302565 -46.692488
18.742928 34.440294 -46.845080
20.659324 34.385426 -47.018714
22.390650 33.747158 -47.177144
24.050916 32.884887 -47.329736
25.711183 32.022616 -47.482328
27.449862 31.407526 -47.641362
29.358905 31.329480 -47.814392
31.019171 30.467209 -47.966984
32.716283 29.721087 -48.122603
34.471757 29.158941 -48.283017
35.995874 27.867481 -48.424424
37.519990 26.576020 -48.565830
39.275464 26.013874 -48.726244
40.980770 25.293583 -48.882536
41.877894 23.808704 -48.967696
43.633368 23.246558 -49.128110
45.157485 21.955097 -49.269516
46.004441 20.312074 -49.350554
47.759915 19.749927 -49.510968
48.790873 18.202432 -49.608410
50.130988 16.815443 -49.733413
51.864539 16.184189 -49.892026
52.118598 14.291075 -49.920054
53.695227 13.329298 -50.065339
54.320705 11.878067 -50.125817
54.488676 9.882531 -50.146324
55.696335 8.481787 -50.259373
56.690782 7.469524 -50.352087
57.600714 5.859195 -50.438740
58.447671 4.216171 -50.519778
59.109991 2.477289 -50.584356
59.277961 0.481754 -50.604863
59.445932 -1.513782 -50.625370
59.613902 -3.509317 -50.645876
59.781873 -5.504853 -50.666383
60.820772 -7.048225 -50.764533
61.075462 -8.998738 -50.792771
60.216302 -10.665994 -50.719421
60.384273 -12.661530 -50.739928
60.552243 -14.657065 -50.760435
60.377979 -16.543219 -50.749669
59.091409 -18.073872 -50.637264
59.001894 -19.987114 -50.634242
58.469354 -21.389071 -50.589756
57.234443 -22.737935 -50.481545
56.500321 -24.445155 -50.419621
55.940041 -26.207936 -50.373582
54.656964 -27.739705 -50.261495
54.093192 -29.501370 -50.215138
52.938644 -31.074218 -50.114796
51.896372 -32.114961 -50.023205
51.171193 -33.825039 -49.962098
50.775813 -35.640524 -49.931128
49.011835 -36.243778 -49.773040
47.502731 -37.342145 -49.639340
45.866190 -38.192956 -49.493447
45.115596 -39.586037 -49.429197
43.669370 -40.806548 -49.301514
42.382800 -42.337200 -49.189109
40.746259 -43.188011 -49.043215
39.145507 -44.108344 -48.900746
37.823148 -45.569475 -48.784916
36.186607 -46.420285 -48.639022
34.667941 -47.500075 -48.504408
32.913526 -48.121907 -48.347235
31.626955 -49.652560 -48.234829
29.695441 -49.930363 -48.060710
28.202919 -51.060940 -47.928597
26.367362 -51.525149 -47.763660
24.722941 -52.360652 -47.617012
23.094280 -53.226771 -47.471873
21.457740 -54.077582 -47.325979
19.750441 -54.790940 -47.173315
17.762985 -54.960075 -46.993843
16.198146 -55.950171 -46.854810
14.283008 -56.259787 -46.682258
12.575094 -56.971950 -46.529534
10.803030 -57.559498 -46.370673
8.815575 -57.728633 -46.191200
6.828119 -57.897768 -46.011728
4.840664 -58.066902 -45.832256
2.853208 -58.236037 -45.652784
0.865753 -58.405172 -45.473312
-0.980516 -58.848572 -45.307349
-2.614225 -59.704883 -45.161727
-4.601681 -59.874018 -44.982254
-6.589136 -60.043153 -44.802782
0.847273 -32.608849 -22.921132
-0.621879 -31.447832 -22.727841
-2.606168 -31.237863 -22.493153
-4.590456 -31.027893 -22.258466
-6.574745 -30.817924 -22.023778
-8.043897 -29.656907 -21.830487
-10.028186 -29.446938 -21.595800
-12.012474 -29.236968 -21.361112
-13.907687 -28.862547 -21.133583
-15.465915 -27.865982 -20.933134
-17.141106 -27.085356 -20.723285
-18.919355 -26.494995 -20.505155
-20.738782 -25.980657 -20.283716
-21.991235 -24.419569 -20.107839
-23.841947 -23.962991 -19.883886
-25.311099 -22.801973 -19.690595
-26.841363 -21.753782 -19.492393
-28.764539 -21.430987 -19.262616
-30.074782 -19.976590 -19.082095
-31.702843 -19.108952 -18.876034
-33.308201 -18.199399 -18.671797
-34.641146 -16.786917 -18.489452
-36.177362 -15.749715 -18.290772
-37.579449 -14.464882 -18.102870
-39.048601 -13.303864 -17.909579
-40.663234 -12.411435 -17.704597
-41.915686 -10.850346 -17.528720
-43.168139 -9.289258 -17.352843
-44.420591 -7.728169 -17.176966
-45.322289 -6.626533 -17.050776
-46.560327 -5.061149 -16.876491
-47.812779 -3.500061 -16.700614
-48.335805 -1.721636 -16.605288
-49.588258 -0.160547 -16.429411
-50.111284 1.617877 -16.334085
-51.264922 3.208408 -16.169120
-51.886763 4.957390 -16.062881
-52.409789 6.735815 -15.967555
-52.688891 8.586918 -15.899166
-53.455841 10.292664 -15.776903
-53.294349 12.275045 -15.757169
-54.112860 13.965428 -15.629212
-54.295493 15.845275 -15.571476
-54.718318 17.653555 -15.487215
-54.505264 19.651298 -15.473175
-53.521063 21.227090 -15.556951
-53.135442 23.130409 -15.564800
-53.476490 24.963055 -15.489570
-53.740900 26.818535 -15.422803
-52.617860 28.318359 -15.524190
-51.427361 29.781270 -15.634134
-51.214308 31.779014 -15.620094
-50.057539 33.260381 -15.725759
-49.844485 35.258124 -15.711719
-48.638640 36.096180 -15.835582
-47.593065 37.638390 -15.927143
-46.436296 39.119758 -16.032809
-45.311988 40.618887 -16.134356
-44.425541 42.248167 -16.205733
-42.871785 43.512314 -16.361754
-41.318030 44.776462 -16.517775
-39.764274 46.040609 -16.673796
-38.679417 46.990551 -16.781426
-37.457315 48.390485 -16.896265
-36.198539 49.744709 -17.016255
-34.240999 49.626327 -17.246055
-33.167529 51.153273 -17.341154
-31.586507 51.786042 -17.512607
-30.032751 53.050189 -17.668628
-28.815624 54.498531 -17.781950
-27.268204 54.833086 -17.955290
-25.283915 54.623117 -18.189977
-23.627879 55.537063 -18.364687
-21.921440 56.278430 -18.548606
-20.306079 57.331645 -18.715884
-18.558964 57.933742 -18.907235
-16.877726 58.761399 -19.086550
-14.893437 58.551430 -19.321237
-13.212199 59.379086 -19.500552
-11.251565 59.250109 -19.730917
-9.546673 59.996773 -19.914554
-7.715475 60.310979 -20.121268
-5.881146 60.614461 -20.328555
-3.965096 60.638137 -20.550774
-2.215619 61.232148 -20.742557
-0.231331 61.022179 -20.977245
1.553328 61.495730 -21.175456
3.434196 61.639866 -21.391247
5.418485 61.429897 -21.625934
7.402774 61.219928 -21.860622
9.387062 61.009958 -22.095309
11.371351 60.799989 -22.329997
13.355640 60.590020 -22.564684
15.339929 60.380051 -22.799372
17.324217 60.170082 -23.034059
19.308506 59.960113 -23.268747
21.292795 59.750143 -23.503434
23.052079 59.124769 -23.720040
24.746235 58.379157 -23.931413
26.730524 58.169188 -24.166100
28.630721 57.803967 -24.394030
30.183964 56.798201 -24.594079
32.168253 56.588232 -24.828766
33.845106 55.810673 -25.038748
35.621694 55.217245 -25.256745
37.442782 54.705974 -25.478317
38.695234 53.144886 -25.654195
40.544286 52.685241 -25.878014
42.292910 52.040187 -26.093764
43.909619 51.151591 -26.298913
45.466878 50.153237 -26.499284
46.936029 48.992219 -26.692575
48.405181 47.831202 -26.885866
50.012200 46.924716 -27.090236
51.628910 46.036120 -27.295385
53.245619 45.147524 -27.500534
54.498072 43.586436 -27.676411
55.750939 42.026114 -27.852321
57.367233 41.136752 -28.057437
58.619686 39.575663 -28.233314
60.158394 38.543062 -28.432194
61.488848 37.125979 -28.614340
62.741300 35.564891 -28.790217
63.879692 33.969817 -28.953498
64.516779 32.225378 -29.061420
65.769231 30.664289 -29.237297
67.364484 29.736079 -29.440721
67.215855 27.790753 -29.461231
68.630558 26.585435 -29.649054
68.914997 24.992455 -29.713051
69.733508 23.302072 -29.841007
70.365328 21.556063 -29.948348
70.338966 19.613945 -29.983004
71.411380 17.999213 -30.139000
71.975988 16.233178 -30.238918
71.762935 14.235435 -30.252958
71.549881 12.237692 -30.266998
71.336828 10.239948 -30.281038
72.155339 8.549565 -30.408995
71.558994 6.761549 -30.374417
70.785517 5.070454 -30.317370
70.572463 3.072711 -30.331410
70.359410 1.074968 -30.345451
70.015126 -0.850970 -30.342845
68.989587 -2.404143 -30.253826
68.776534 -4.401886 -30.267866
67.619764 -5.883254 -30.162200
66.469335 -7.368090 -30.057339
65.582888 -8.997370 -29.985963
64.696440 -10.626651 -29.914586
63.142684 -11.890798 -29.758565
62.256236 -13.520078 -29.687189
60.702481 -14.784225 -29.531168
59.607282 -15.698754 -29.421649
58.047988 -16.943940 -29.264616
57.126403 -18.452912 -29.186819
55.393496 -19.103655 -28.998063
54.507048 -20.732935 -28.926687
53.542833 -22.095946 -28.841101
51.638266 -22.158938 -28.620980
50.084510 -23.423086 -28.464959
48.499119 -24.578915 -28.303157
46.762710 -25.217668 -28.113762
44.994665 -25.748103 -27.918586
43.440909 -27.012250 -27.762565
41.672864 -27.542685 -27.567390
39.904820 -28.073121 -27.372214
38.108641 -28.507228 -27.171898
36.368730 -29.133991 -26.981862
34.600685 -29.664426 -26.786687
32.761876 -29.952571 -26.578581
31.064595 -30.725296 -26.396335
29.096350 -30.570259 -26.164579
27.528505 -31.786166 -26.005984
25.733874 -32.225572 -25.805950
23.749585 -32.015602 -25.571263
21.795792 -31.910048 -25.342147
20.084059 -32.633290 -25.157261
18.259702 -32.970918 -24.951796
16.418532 -33.250977 -24.743259
14.434243 -33.041008 -24.508571
12.449954 -32.831039 -24.273884
10.465666 -32.621069 -24.039196
8.776610 -33.421957 -23.858453
6.800139 -33.238757 -23.625194
4.815850 -33.028788 -23.390507
2.831562 -32.818818 -23.155819
