ply
format ascii 1.0
element vertex 1220
property float x
property float y
property float z
end_header
-16.744314 -45.391039 3.556585
-18.416479 -44.551246 3.779455
-20.405513 -44.746418 4.006280
-22.394547 -44.941590 4.233105
-24.383581 -45.136762 4.459930
-26.055746 -44.296969 4.682800
-27.990989 -44.316447 4.908954
-29.716945 -43.652348 5.132496
-31.705979 -43.847520 5.359321
-33.378144 -43.007728 5.582191
-35.264712 -42.868222 5.807737
-37.027128 -42.323208 6.031734
-38.711509 -41.523314 6.254757
-40.551959 -41.233180 6.479728
-42.372708 -40.878693 6.704453
-44.076791 -40.143153 6.927721
-45.839207 -39.598139 7.151718
-47.389203 -38.359316 7.373064
-49.139978 -37.776281 7.596916
-50.733533 -36.679730 7.818805
-52.440749 -35.954423 8.042113
-54.077863 -35.000145 8.264546
-55.741520 -34.132565 8.487311
-57.279876 -32.855721 8.708511
-58.886116 -32.227057 8.916889
-59.908570 -30.673889 9.086492
-61.859420 -30.744342 9.312841
-62.188437 -28.917040 9.409973
-63.325426 -27.425218 9.591032
-64.493883 -25.950250 9.775238
-66.032238 -24.673406 9.996438
-66.898517 -23.036588 10.150422
-68.436872 -21.759744 10.371623
-69.010371 -19.966108 10.496325
-70.147360 -18.474286 10.677384
-70.333889 -16.473384 10.763384
-71.229911 -14.852497 10.920343
-71.657407 -12.980660 11.030443
-71.843936 -10.979758 11.116443
-72.030465 -8.978856 11.202443
-73.167454 -7.487034 11.383502
-73.147445 -5.549467 11.443269
-72.513228 -3.800246 11.425023
-72.699757 -1.799344 11.511023
-72.229353 0.000110 11.513584
-72.045531 1.887444 11.552545
-71.859425 3.774077 11.591215
-70.584861 5.326936 11.491637
-70.550549 7.260117 11.549588
-69.488534 8.878154 11.477006
-68.869039 10.631889 11.460630
-67.665806 12.206621 11.370112
-66.391243 13.759480 11.270534
-65.596773 15.067042 11.219351
-64.213308 16.412957 11.100378
-62.938744 17.965816 11.000800
-62.390580 19.741425 10.993484
-60.760809 20.619293 10.830644
-59.244907 21.713544 10.688083
-57.856474 23.050020 10.568225
-56.271517 24.013048 10.413366
-54.952140 25.480747 10.305807
-53.322368 26.358616 10.142966
-51.811433 27.462305 10.001290
-50.324739 28.612057 9.863932
-48.788263 29.667211 9.717707
-47.158492 30.545080 9.554867
-45.362315 31.106733 9.362390
-43.875620 32.256485 9.225031
-41.913971 32.503695 9.003084
-40.399891 33.601409 8.860848
-38.654428 34.259432 8.677403
-36.924162 34.946333 8.496664
-35.039678 35.340178 8.288460
-33.765115 36.893037 8.188882
-31.961739 37.441009 7.995122
-29.972705 37.636181 7.768298
-27.983671 37.831353 7.541473
-25.994637 38.026524 7.314648
-24.005602 38.221696 7.087823
-22.016568 38.416868 6.860998
-20.027534 38.612040 6.634173
-18.038500 38.807211 6.407348
-16.049466 39.002383 6.180523
-14.060432 39.197555 5.953699
-12.071398 39.392727 5.726874
-10.399233 38.552934 5.504003
-8.410199 38.748106 5.277178
-6.421165 38.943278 5.050353
-4.484643 38.966933 4.824184
-2.759965 38.298657 4.600658
-0.770931 38.493829 4.373833
1.026665 38.063722 4.149397
2.573399 36.814243 3.928092
4.551496 36.973694 3.701404
6.234598 36.169623 3.478396
8.076328 35.883666 3.253410
9.838744 35.338653 3.029413
11.567962 34.685209 2.805831
13.240127 33.845417 2.582960
14.912292 33.005624 2.360089
16.664346 32.426767 2.136222
18.426762 31.881753 1.912225
19.965117 30.604909 1.691024
21.600952 29.646454 1.468607
23.273117 28.806661 1.245737
25.028304 28.238037 1.021830
26.566660 26.961193 0.800629
28.105015 25.684349 0.579429
29.643371 24.407505 0.358228
30.775748 22.913213 0.177631
31.912737 21.421391 -0.003428
32.914284 19.857024 -0.170941
34.676699 19.312010 -0.394938
35.269381 17.528649 -0.521558
36.406370 16.036827 -0.702617
37.275536 14.401556 -0.856890
37.729888 12.544103 -0.969676
38.866877 11.052281 -1.150735
39.202296 9.131127 -1.251626
40.190395 7.559558 -1.417793
40.376924 5.558655 -1.503794
40.563453 3.557753 -1.589794
40.749982 1.556851 -1.675794
40.936511 -0.444051 -1.761794
41.123040 -2.444953 -1.847794
40.665076 -4.248222 -1.851935
40.468814 -6.131741 -1.889316
40.295148 -8.022189 -1.929566
39.020585 -9.575048 -1.829988
38.973832 -11.504415 -1.886358
38.133077 -13.190300 -1.841880
37.376093 -14.901875 -1.808041
36.451567 -16.562072 -1.752922
35.553365 -18.230342 -1.701147
34.278802 -19.783201 -1.601569
33.730638 -21.558810 -1.594253
32.456074 -23.111668 -1.494675
30.826303 -23.989537 -1.331835
30.255015 -25.721203 -1.320401
28.648368 -26.643014 -1.161679
27.018597 -27.520882 -0.998838
26.667233 -29.356840 -1.016519
25.466772 -30.206532 -0.903083
23.582083 -30.599988 -0.694842
22.307519 -32.152847 -0.595264
20.677748 -33.030715 -0.432424
19.047977 -33.908583 -0.269583
17.530959 -35.000713 -0.126824
15.788435 -35.664320 0.056098
14.158664 -36.542189 0.218938
12.568535 -37.495389 0.374718
10.899121 -38.297925 0.544619
9.595146 -39.794893 0.649435
7.606112 -39.990065 0.876260
5.654600 -40.256540 1.096402
4.130383 -41.334989 1.240444
2.141349 -41.530161 1.467268
0.152315 -41.725332 1.694093
-1.334380 -42.875085 1.831452
-3.323414 -43.070256 2.058277
-5.312448 -43.265428 2.285102
-7.301483 -43.460600 2.511926
-9.159606 -43.904536 2.715436
-10.777211 -44.805524 2.876110
-12.766245 -45.000696 3.102935
-14.755280 -45.195867 3.329760
17.708798 -30.161299 62.458231
16.218488 -29.005060 62.528843
14.214377 -28.801316 62.581144
12.210267 -28.597573 62.633446
10.440951 -27.958560 62.694116
8.715846 -27.237590 62.756360
6.807028 -26.857191 62.812058
5.221425 -25.877608 62.879274
3.731115 -24.721369 62.949886
1.901110 -24.194863 63.008392
0.236694 -23.361386 63.072800
-1.369501 -22.419978 63.139282
-2.743927 -21.048909 63.214024
-4.276802 -19.971577 63.283119
-5.912108 -19.084134 63.348564
-7.184102 -17.523176 63.426956
-8.705168 -16.423953 63.496472
-10.195478 -15.267714 63.567084
-10.993633 -13.967581 63.626397
-12.265627 -12.406622 63.704789
-13.570023 -10.905730 63.782026
-14.439853 -9.738469 63.838785
-15.194877 -8.022540 63.910237
-16.026362 -6.329532 63.982715
-16.789686 -4.616091 64.054279
-17.328606 -2.835380 64.122830
-17.484094 -0.939730 64.186234
-18.315580 0.753279 64.258712
-18.110341 2.757064 64.317273
-17.905102 4.760848 64.375835
-17.699863 6.764633 64.434396
-17.494624 8.768418 64.492957
-17.289385 10.772203 64.551518
-16.266175 12.335380 64.577448
-15.926558 14.266781 64.630649
-15.161921 15.969241 64.666894
-14.273088 17.604802 64.698184
-13.384255 19.240363 64.729475
-11.822009 20.513184 64.733901
-10.259763 21.786005 64.738327
-8.981028 23.211542 64.754063
-7.589409 23.961644 64.745893
-6.027163 25.234465 64.750319
-4.998447 26.402582 64.763651
-3.356810 27.410104 64.757884
-1.610428 28.067605 64.738670
0.083581 28.900117 64.726180
1.777591 29.732628 64.713690
3.549998 30.303160 64.691135
5.475710 30.361396 64.648898
7.169720 31.193908 64.636408
8.894560 31.923394 64.619960
10.867839 31.822676 64.571616
12.561849 32.655187 64.559126
14.255858 33.487699 64.546636
16.259969 33.283955 64.494334
18.021437 33.891041 64.473183
19.958088 33.912723 64.429542
21.962199 33.708980 64.377240
23.966309 33.505236 64.324938
25.970420 33.301492 64.272637
27.974530 33.097749 64.220335
29.978641 32.894005 64.168033
31.807729 33.275128 64.138201
33.676761 33.522773 64.103241
35.530382 33.040050 64.045576
37.171181 32.162790 63.980327
39.164306 31.938680 63.927634
40.665602 30.802808 63.857413
42.669713 30.599064 63.805111
44.433535 29.949869 63.744246
46.068841 29.062426 63.678802
47.654444 28.082843 63.611586
49.658554 27.879099 63.559284
51.148865 26.722860 63.488672
52.639175 25.566621 63.418060
54.245370 24.625213 63.351577
55.880676 23.737771 63.286133
57.515982 22.850328 63.220688
59.114216 21.894161 63.153922
60.423282 20.401927 63.076851
61.985447 19.492559 63.012388
62.597508 17.733774 62.942855
64.232814 16.846332 62.877410
65.504808 15.285373 62.799018
66.467437 14.196284 62.742604
67.298922 12.503276 62.670125
68.217953 10.836510 62.596471
68.961893 9.117258 62.525168
69.295792 7.275089 62.459369
70.567786 5.714131 62.380977
70.419625 3.727456 62.321650
71.251111 2.034448 62.249171
71.451470 0.152248 62.185165
71.877357 -1.662345 62.118131
70.884691 -3.241976 62.090983
70.514530 -5.156924 62.039001
70.309291 -7.160708 61.980440
70.104052 -9.164493 61.921878
69.898814 -11.168278 61.863317
68.741225 -12.659072 61.842748
67.571931 -14.143559 61.822646
66.426049 -15.640659 61.801610
65.268460 -17.131452 61.781041
64.232018 -18.687502 61.755639
62.953284 -20.113039 61.739902
61.561665 -20.863141 61.748073
59.999419 -22.135962 61.743647
58.388116 -23.244851 61.745519
56.655652 -23.948862 61.762946
55.093406 -25.221683 61.758520
53.311886 -25.761761 61.782245
51.612079 -26.574898 61.795479
49.968119 -27.574660 61.801544
48.224060 -28.239921 61.820460
46.405078 -28.654816 61.848994
44.525940 -28.868689 61.885252
42.831931 -29.701201 61.897742
40.841242 -29.542308 61.948321
39.133811 -30.329969 61.962534
37.129701 -30.126225 62.014836
35.435691 -30.958737 62.027326
33.431581 -30.754993 62.079628
31.714364 -31.509955 62.095097
29.733461 -31.383761 62.144420
27.729350 -31.180017 62.196721
25.725240 -30.976274 62.249023
23.721130 -30.772530 62.301325
21.717019 -30.568786 62.353627
19.712909 -30.365043 62.405929
23.829702 -27.461198 62.764490
22.133970 -26.634425 62.829402
20.130144 -26.844950 62.868619
18.126318 -27.055476 62.907836
16.263386 -26.791636 62.958804
14.426760 -26.439228 63.011966
12.698084 -25.723373 63.074131
10.727203 -25.822980 63.116096
8.914926 -25.388592 63.171288
7.132275 -24.854460 63.228951
5.349624 -24.320329 63.286615
3.636181 -23.553185 63.350050
1.940450 -22.726411 63.414963
0.219527 -21.984453 63.477774
-1.451014 -21.072864 63.544788
-3.127920 -20.182708 63.611270
-4.842477 -19.419316 63.674613
-6.475367 -18.380964 63.744767
-8.040162 -17.113351 63.820600
-9.604957 -15.845738 63.896432
-11.169753 -14.578125 63.972265
-12.734548 -13.310512 64.048098
-13.986436 -11.873114 64.122129
-15.146918 -10.386120 64.195634
-15.410809 -8.412632 64.263976
-16.516530 -6.895924 64.337166
-17.677012 -5.408929 64.410670
-17.886141 -3.405728 64.478697
-18.095269 -1.402527 64.546724
-18.304398 0.600675 64.614751
-18.513527 2.603876 64.682778
-18.722656 4.607077 64.750804
-18.931785 6.610279 64.818831
-18.121273 8.311445 64.853986
-18.312720 10.309409 64.921442
-17.050183 11.876677 64.942024
-16.514639 13.659293 64.986043
-15.828139 15.397194 65.025195
-14.999945 17.093123 65.059779
-13.809892 18.117581 65.064883
-13.274347 19.900197 65.108902
-11.781977 21.053761 65.111163
-10.371648 22.358594 65.120077
-9.102605 23.923936 65.140448
-7.468949 24.816991 65.131251
-6.199906 26.382332 65.151622
-4.566250 27.275388 65.142425
-2.932593 28.168443 65.133228
-1.364689 29.182735 65.129363
0.123495 30.344017 65.131962
1.968377 30.847609 65.105635
3.602034 31.740664 65.096438
5.103689 32.877107 65.097945
6.869347 33.526775 65.078043
8.595699 34.248915 65.061328
10.599525 34.459441 65.022111
12.134931 35.533655 65.020882
14.091536 35.831249 64.985494
16.095362 36.041775 64.946277
18.099188 36.252300 64.907060
20.103014 36.462826 64.867843
22.106840 36.673352 64.828626
24.110666 36.883878 64.789409
26.114492 37.094404 64.750192
28.118318 37.304930 64.710975
30.122144 37.515455 64.671758
31.903136 36.975736 64.613956
33.821702 36.899208 64.567629
35.825528 37.109733 64.528412
37.521260 36.282960 64.463499
39.469452 36.306173 64.419642
41.220818 35.666712 64.359369
43.224644 35.877238 64.320152
44.920376 35.050464 64.255240
46.616107 34.223690 64.190327
48.600563 34.368998 64.149495
50.315665 33.607442 64.086198
51.948009 32.567253 64.015999
53.707129 31.953895 63.956373
55.295456 30.765509 63.882502
57.014852 30.197055 63.825203
57.970194 28.598751 63.752880
59.752845 28.064620 63.695216
61.317640 26.797007 63.619383
62.882436 25.529394 63.543551
63.774523 23.896767 63.471591
65.339318 22.629154 63.395758
66.231405 20.996528 63.323799
67.189274 19.399594 63.251461
68.015579 17.731275 63.179880
69.449449 17.007894 63.124225
69.658578 15.004692 63.056199
70.236988 13.201864 62.986045
71.028189 11.514496 62.914667
71.237318 9.511295 62.846640
71.446446 7.508094 62.778613
71.512045 5.547408 62.715214
70.827382 3.808964 62.676002
71.036510 1.805762 62.607975
70.208317 0.109834 62.573391
69.369865 -1.583056 62.539138
68.551930 -3.282023 62.504223
67.723736 -4.977952 62.469638
67.029733 -6.713630 62.430728
66.067349 -8.369809 62.400470
64.860532 -9.389302 62.395906
63.591489 -10.954643 62.375535
62.322446 -12.519985 62.355163
60.753629 -13.532594 62.359102
59.419747 -14.978381 62.343989
57.786090 -15.871437 62.353186
56.289077 -17.016440 62.351302
54.883391 -18.329834 62.342012
53.312709 -19.339004 62.346102
51.824525 -20.500286 62.343502
49.982421 -21.009000 62.369604
48.348765 -21.902055 62.378802
46.844331 -23.033376 62.377520
45.081451 -23.688165 62.397197
43.352321 -24.405184 62.414137
41.348495 -24.615710 62.453354
39.344669 -24.826235 62.492571
37.340843 -25.036761 62.531788
35.819326 -26.136584 62.531891
33.848833 -26.408569 62.568405
31.845007 -26.619095 62.607622
29.841180 -26.829621 62.646839
27.837354 -27.040147 62.686056
25.833528 -27.250673 62.725273
-21.079820 -51.841214 -32.810168
-22.752837 -50.999000 -32.622877
-24.741610 -51.191867 -32.413785
-26.730382 -51.384735 -32.204692
-28.719155 -51.577602 -31.995599
-30.567075 -51.308739 -31.796232
-32.380944 -50.928255 -31.599216
-34.369717 -51.121123 -31.390123
-36.304083 -51.135637 -31.184787
-38.031506 -50.471776 -30.993740
-39.831056 -50.044351 -30.797712
-41.693295 -49.822429 -30.597356
-43.366312 -48.980214 -30.410066
-45.355084 -49.173082 -30.200973
-47.331550 -49.325606 -29.992730
-48.871763 -48.048049 -29.814609
-50.689890 -47.681520 -29.617299
-52.398737 -46.956762 -29.427534
-54.351679 -47.032173 -29.220915
-56.024695 -46.189958 -29.033624
-57.689197 -45.319833 -28.846922
-59.370728 -44.505529 -28.659043
-61.043744 -43.663314 -28.471752
-62.820476 -43.597815 -28.282255
-63.847503 -42.045942 -28.155540
-65.798664 -42.115516 -27.949045
-67.471681 -41.273302 -27.761754
-69.117684 -40.398172 -27.576959
-70.005808 -38.772051 -27.464159
-71.769295 -38.226408 -27.270622
-73.309508 -36.948851 -27.092501
-74.849721 -35.671294 -26.914379
-76.389934 -34.393737 -26.736258
-78.153421 -33.848094 -26.542721
-79.693634 -32.570537 -26.364599
-80.561479 -30.933575 -26.253831
-82.101693 -29.656018 -26.075710
-83.262727 -28.175777 -25.935572
-83.837383 -26.382095 -25.854172
-85.377597 -25.104538 -25.676051
-85.732722 -23.193509 -25.616643
-87.193076 -22.092171 -25.449005
-88.204406 -20.925567 -25.328329
-89.098358 -19.302560 -25.214945
-89.940097 -17.651644 -25.106792
-90.428064 -15.811624 -25.034076
-90.617482 -13.812018 -24.991268
-91.757771 -12.320687 -24.853208
-91.947188 -10.321081 -24.810399
-92.136605 -8.321475 -24.767590
-92.326023 -6.321870 -24.724781
-92.515440 -4.322264 -24.681972
-91.821651 -2.594125 -24.736072
-91.865296 -0.639325 -24.709258
-92.054714 1.360281 -24.666449
-91.642630 3.175006 -24.689639
-91.404570 5.043220 -24.693735
-91.280751 6.946548 -24.685295
-90.736012 8.720499 -24.723041
-89.914864 10.409492 -24.791115
-89.075303 12.092825 -24.861209
-88.374199 13.818715 -24.916112
-87.829460 15.592666 -24.953858
-86.557124 17.142979 -25.071438
-85.284787 18.693292 -25.189018
-84.012451 20.243605 -25.306599
-83.188234 21.488024 -25.380043
-81.838765 22.892192 -25.507475
-81.274604 24.660173 -25.547352
-79.665079 25.540779 -25.708352
-78.392742 27.091091 -25.825932
-76.850199 28.129439 -25.978027
-75.491458 29.516040 -26.106644
-74.219122 31.066352 -26.224224
-72.590174 31.940988 -26.387356
-71.317838 33.491301 -26.504936
-69.688890 34.365936 -26.668067
-68.059943 35.240571 -26.831198
-66.787606 36.790884 -26.948779
-64.974610 37.316799 -27.135419
-63.490161 38.465219 -27.280093
-61.900764 39.414790 -27.438172
-60.271816 40.289425 -27.601303
-58.532491 40.954926 -27.778533
-57.013921 42.038696 -27.927566
-55.384974 42.913331 -28.090697
-53.574821 43.444633 -28.276974
-51.770468 43.986925 -28.462510
-50.101600 44.785921 -28.630741
-48.112827 44.978789 -28.839833
-46.527014 45.935153 -28.997455
-44.639605 46.320076 -29.193600
-42.912508 47.008746 -29.369268
-41.166384 47.661364 -29.547367
-39.177611 47.854231 -29.756459
-37.312444 48.281297 -29.949763
-35.704389 49.195519 -30.110226
-33.715616 49.388386 -30.319318
-31.726844 49.581254 -30.528411
-29.738071 49.774122 -30.737504
-27.749298 49.966989 -30.946596
-25.760525 50.159857 -31.155689
-23.771752 50.352724 -31.364782
-21.782979 50.545592 -31.573874
-19.794206 50.738460 -31.782967
-17.810465 50.914834 -31.991712
-16.132417 50.089113 -32.179350
-14.143645 50.281980 -32.388443
-12.154872 50.474848 -32.597535
-10.309971 50.196089 -32.796694
-8.546484 49.650446 -32.990232
-6.820066 48.983286 -33.181210
-4.831294 49.176154 -33.390302
-3.032750 48.745430 -33.586260
-1.169504 48.526807 -33.786686
0.717497 48.386058 -33.988752
2.480984 47.840414 -34.182289
4.165301 47.035245 -34.370360
6.007957 46.749128 -34.569364
7.827090 46.385898 -34.766744
9.534931 45.657842 -34.956439
11.298417 45.112199 -35.149976
13.161895 44.894336 -35.350418
14.825391 44.020912 -35.537051
16.507928 43.209907 -35.724999
18.352364 42.929626 -35.924126
19.892577 41.652069 -36.102247
21.526976 40.683263 -36.286872
23.196277 39.828869 -36.473906
24.873009 38.998834 -36.661454
26.499977 38.005669 -36.845565
28.219041 37.314404 -37.036035
29.803677 36.182469 -37.217224
31.343890 34.904912 -37.395345
32.922333 33.752678 -37.576106
33.975222 32.722307 -37.699651
35.515435 31.444750 -37.877772
37.030254 30.766185 -38.046400
37.474400 28.902741 -38.114726
39.014613 27.625184 -38.292847
40.451120 26.292193 -38.460580
41.422671 24.710666 -38.581737
42.731698 23.309531 -38.736700
43.830730 21.796147 -38.870627
44.061404 19.818595 -38.917569
45.201693 18.327264 -39.055628
45.761899 16.525858 -39.135580
46.629744 14.888896 -39.246349
47.671688 13.344996 -39.374557
47.861106 11.345391 -39.417366
48.050523 9.345785 -39.460175
48.239941 7.346179 -39.502984
48.429358 5.346573 -39.545793
48.618775 3.346967 -39.588602
48.808193 1.347361 -39.631411
48.412505 -0.472403 -39.610019
48.158049 -2.335577 -39.604125
48.347466 -4.335183 -39.646934
47.507905 -6.018516 -39.576839
47.697322 -8.018122 -39.619648
47.144008 -9.789438 -39.580962
45.871671 -11.339751 -39.463381
45.178638 -13.068121 -39.409364
44.782194 -14.887653 -39.387890
43.509858 -16.437966 -39.270310
42.659954 -18.118121 -39.199080
42.210122 -19.587490 -39.167962
40.791433 -20.860505 -39.031688
39.519096 -22.410817 -38.914107
38.840985 -23.932066 -38.859326
37.345410 -25.059404 -38.713230
36.451973 -26.172669 -38.630945
35.171724 -27.707991 -38.512354
33.542777 -28.582626 -38.349222
32.270440 -30.132939 -38.231642
30.998104 -31.683252 -38.114062
29.369156 -32.557887 -37.950931
28.049605 -34.018741 -37.827319
26.467872 -34.982836 -37.670219
25.080708 -36.315581 -37.537971
23.566588 -37.407784 -37.389507
21.937641 -38.282419 -37.226376
20.308693 -39.157054 -37.063245
18.679746 -40.031690 -36.900114
17.154140 -41.102128 -36.750183
15.421851 -41.780960 -36.573851
13.680919 -42.443416 -36.396416
12.163956 -43.530231 -36.247589
10.207697 -43.784703 -36.042650
8.549450 -44.603824 -35.875776
6.920502 -45.478459 -35.712645
5.250027 -46.274411 -35.544209
3.305996 -46.552053 -35.340831
1.776805 -47.615698 -35.190442
-0.211968 -47.808566 -34.981350
-1.937457 -48.500281 -34.805887
-3.685189 -49.149853 -34.627583
-5.673962 -49.342721 -34.418490
-7.662735 -49.535589 -34.209398
-9.651508 -49.728456 -34.000305
-11.508639 -50.170748 -33.808028
-13.124729 -51.069744 -33.646539
-15.113502 -51.262611 -33.437446
-17.102275 -51.455479 -33.228353
-19.091048 -51.648347 -33.019261
-31.701868 -47.252115 -30.558103
-33.171363 -46.093508 -30.388844
-35.154220 -45.886803 -30.175846
-37.137077 -45.680098 -29.962849
-39.119935 -45.473393 -29.749851
-40.589430 -44.314785 -29.580593
-42.572287 -44.108081 -29.367595
-44.480289 -43.762576 -29.160975
-46.024639 -42.742768 -28.985339
-48.007497 -42.536063 -28.772342
-49.990354 -42.329358 -28.559344
-51.459849 -41.170750 -28.390085
-53.442706 -40.964046 -28.177088
-54.914648 -39.809975 -28.007620
-56.532707 -38.926843 -27.825704
-58.364554 -38.440125 -27.625573
-59.834049 -37.281517 -27.456314
-61.386885 -36.277445 -27.279954
-63.286401 -35.916205 -27.074057
-64.755896 -34.757597 -26.904798
-66.604064 -34.301145 -26.703277
-67.859122 -32.744915 -26.552288
-69.477181 -31.861782 -26.370371
-70.732239 -30.305553 -26.219382
-72.350298 -29.422420 -26.037466
-73.731414 -28.468366 -25.879917
-74.493722 -26.764645 -25.779602
-76.111781 -25.881513 -25.597686
-77.729841 -24.998380 -25.415769
-78.984898 -23.442151 -25.264780
-80.602957 -22.559018 -25.082864
-81.858015 -21.002789 -24.931875
-83.113072 -19.446559 -24.780886
-84.368130 -17.890330 -24.629897
-84.893495 -16.115687 -24.553951
-86.148552 -14.559458 -24.402962
-86.673917 -12.784815 -24.327015
-87.990226 -11.811362 -24.176131
-88.814228 -10.126108 -24.069472
-89.342707 -8.352398 -23.993205
-90.462234 -6.755601 -23.856154
-90.393437 -4.803113 -23.841312
-91.648495 -3.246883 -23.690323
-92.173860 -1.472241 -23.614377
-92.726305 0.294296 -23.535645
-92.518367 2.288432 -23.535112
-92.310429 4.282568 -23.534579
-93.134432 5.967822 -23.427920
-92.926494 7.961958 -23.427387
-92.718557 9.956094 -23.426854
-92.510619 11.950230 -23.426321
-92.302681 13.944366 -23.425787
-92.094743 15.938503 -23.425254
-91.489984 17.716583 -23.469329
-90.609798 19.344703 -23.544366
-89.578884 20.890757 -23.636347
-89.370946 22.884893 -23.635814
-88.638176 24.593275 -23.694279
-87.089050 25.857180 -23.844514
-86.855087 27.837147 -23.846906
-85.328676 29.113419 -23.994588
-84.547166 30.795265 -24.058532
-83.568302 32.369658 -24.144662
-82.527339 33.452650 -24.242964
-80.922658 34.528192 -24.401237
-79.373532 35.792096 -24.551472
-77.892094 37.092855 -24.694098
-76.944219 38.684121 -24.776744
-75.178763 39.214535 -24.958283
-73.629637 40.478440 -25.108518
-72.390982 41.911386 -25.223851
-70.983993 42.636974 -25.365093
-69.434867 43.900879 -25.515328
-68.413948 45.051832 -25.610730
-66.431091 44.845127 -25.823727
-64.972147 45.946017 -25.966231
-63.656583 46.566733 -26.098950
-61.729133 46.547892 -26.303930
-60.180007 47.811796 -26.454165
-58.625824 49.058554 -26.605131
-56.865425 49.606116 -26.785938
-54.966047 49.682456 -26.986856
-53.289127 50.513062 -27.155583
-51.569056 51.197360 -27.330554
-49.935287 52.174276 -27.493037
-47.952430 51.967571 -27.706035
-46.272686 52.788604 -27.875170
-44.292653 52.591473 -28.087759
-42.525443 53.115944 -28.269552
-40.632876 53.215375 -28.469484
-38.955956 54.045982 -28.638211
-36.973099 53.839277 -28.851208
-34.990242 53.632572 -29.064206
-33.265501 54.301037 -29.239853
-31.330465 54.256474 -29.445930
-29.518258 54.628377 -29.634234
-27.670688 54.880376 -29.827655
-25.687830 54.673671 -30.040652
-23.704973 54.466966 -30.253649
-21.722116 54.260262 -30.466647
-19.739259 54.053557 -30.679644
-17.756402 53.846852 -30.892641
-15.773544 53.640147 -31.105639
-13.790687 53.433442 -31.318636
-11.807830 53.226738 -31.531633
-9.824973 53.020033 -31.744631
-8.355478 51.861425 -31.913890
-6.372621 51.654720 -32.126887
-4.389763 51.448015 -32.339885
-2.406906 51.241310 -32.552882
-0.799624 50.338194 -32.733880
1.045446 49.875998 -32.935138
2.799496 49.245026 -33.128641
4.497798 48.510685 -33.317394
6.398616 48.151858 -33.523402
7.950151 47.145373 -33.699651
9.419646 45.986765 -33.868910
11.402503 45.780060 -34.081907
13.233855 45.292425 -34.281996
14.488912 43.736196 -34.432985
16.324351 43.256140 -34.633422
17.793846 42.097532 -34.802681
19.706091 41.759895 -35.009663
20.961149 40.203665 -35.160651
22.579208 39.320533 -35.342568
24.185189 38.415004 -35.523455
25.654684 37.256396 -35.692714
27.070384 35.998038 -35.857390
28.593674 34.939180 -36.031232
29.943501 33.558676 -36.190295
31.532665 32.621965 -36.369750
33.179619 31.792411 -36.554129
34.434677 30.236182 -36.705117
35.689734 28.679952 -36.856106
36.944792 27.123723 -37.007095
37.864294 25.467054 -37.123575
38.743580 23.826905 -37.235595
40.343273 22.909718 -37.415947
41.428997 21.302803 -37.549522
42.123696 19.578846 -37.642883
43.378754 18.022616 -37.793872
43.904119 16.247974 -37.869818
44.725008 14.561788 -37.976157
45.549011 12.876535 -38.082816
46.209906 11.142460 -38.172700
47.197017 9.506028 -38.296133
47.260637 7.593175 -38.324594
47.813082 5.826638 -38.403325
47.605144 3.832502 -38.403858
48.429147 2.147248 -38.510517
48.221209 0.153112 -38.511050
48.013271 -1.841024 -38.511583
47.805333 -3.835160 -38.512116
47.597396 -5.829296 -38.512650
47.389458 -7.823433 -38.513183
47.181520 -9.817569 -38.513716
46.973582 -11.811705 -38.514249
45.819621 -13.290764 -38.408436
45.485326 -15.216103 -38.394765
44.457723 -16.763959 -38.303156
43.303762 -18.243018 -38.197343
42.175826 -19.736246 -38.094456
41.295639 -21.364366 -38.019419
40.787903 -23.195272 -37.986251
39.535265 -24.620604 -37.869345
38.479982 -26.153390 -37.774625
36.889622 -26.779138 -37.612770
36.009435 -28.407258 -37.537733
34.460309 -29.671163 -37.387498
33.468625 -30.921241 -37.296327
31.885663 -31.868353 -37.138903
30.934479 -33.457816 -37.055885
29.385353 -34.721721 -36.905650
27.646215 -35.341373 -36.727920
25.969295 -36.171980 -36.559193
24.305314 -37.046455 -36.392338
22.615456 -37.833193 -36.221739
20.990731 -38.840775 -36.060564
19.441605 -40.104679 -35.910329
17.676149 -40.635094 -35.728791
16.793046 -42.253325 -35.653332
14.810188 -42.046620 -35.440334
13.048719 -42.590553 -35.259373
11.283263 -43.120968 -35.077834
9.473491 -43.501129 -34.889883
7.752350 -44.181797 -34.714757
5.986893 -44.712212 -34.533218
4.136795 -44.955637 -34.339431
2.239650 -45.039551 -34.138837
0.690524 -46.303456 -33.988602
-1.199902 -46.410146 -33.788979
-3.182760 -46.203441 -33.575982
-4.859679 -47.034048 -33.407255
-6.842537 -46.827343 -33.194258
-8.569418 -47.488549 -33.018301
-10.502314 -47.451245 -32.812533
-12.485171 -47.244540 -32.599536
-14.162091 -48.075147 -32.430809
-16.144948 -47.868442 -32.217811
-18.127805 -47.661738 -32.004814
-19.811148 -48.470568 -31.835157
-21.787582 -48.285640 -31.623089
-23.770439 -48.078935 -31.410092
-25.753296 -47.872230 -31.197095
-27.736154 -47.665525 -30.984097
-29.719011 -47.458820 -30.771100
13.988011 -47.266153 -36.435427
12.342422 -46.384442 -36.250602
10.357214 -46.530173 -36.041353
8.372006 -46.675904 -35.832104
6.386798 -46.821634 -35.622856
4.741210 -45.939924 -35.438030
2.756002 -46.085655 -35.228782
0.770794 -46.231385 -35.019533
-1.045280 -46.180524 -34.826022
-1.994359 -44.591670 -34.707169
-3.924578 -44.571044 -34.501875
-5.909786 -44.716775 -34.292627
-7.894994 -44.862505 -34.083378
-9.453439 -43.717161 -33.904820
-10.957988 -42.408768 -33.730138
-12.831759 -42.217374 -33.528903
-14.477348 -41.335664 -33.344078
-16.462556 -41.481395 -33.134829
-18.176920 -40.807748 -32.945058
-19.681469 -39.499355 -32.770376
-21.399321 -38.836264 -32.580354
-23.044910 -37.954553 -32.395529
-24.690498 -37.072843 -32.210704
-26.420106 -36.445315 -32.019836
-27.981675 -35.309422 -31.841054
-28.988866 -34.211458 -31.721596
-30.691839 -33.503351 -31.532644
-32.337427 -32.621640 -31.347819
-33.302322 -31.395718 -31.231404
-35.047018 -30.813836 -31.039451
-36.551567 -29.505443 -30.864769
-38.056116 -28.197050 -30.690087
-38.880179 -26.545075 -30.583799
-40.384728 -25.236682 -30.409117
-41.208792 -23.584708 -30.302829
-42.713341 -22.276315 -30.128147
-43.742025 -20.727655 -30.001293
-44.846922 -19.217475 -29.866779
-45.866017 -17.663973 -29.740889
-46.690080 -16.011998 -29.634602
-47.199262 -14.201037 -29.559962
-47.657722 -12.364467 -29.490421
-48.446704 -10.694780 -29.387659
-48.589249 -8.698702 -29.349870
-48.731795 -6.702624 -29.312080
-49.593005 -5.069406 -29.202059
-49.979237 -3.196367 -29.139777
-49.100431 -1.540567 -29.214353
-49.242977 0.455511 -29.176564
-49.385522 2.451589 -29.138775
-49.528068 4.447666 -29.100985
-49.670613 6.443744 -29.063196
-48.918850 8.141870 -29.123795
-48.934353 10.095622 -29.099983
-47.416474 10.968210 -29.251338
-47.135023 12.823027 -29.260195
-46.254964 14.478410 -29.334909
-45.377411 16.134627 -29.409347
-44.371250 17.747997 -29.497935
-43.619800 19.446227 -29.558500
-42.487536 21.017584 -29.660960
-41.184576 22.532071 -29.782201
-39.962032 24.073350 -29.894594
-39.300862 25.801658 -29.945226
-38.481444 27.077941 -30.017799
-36.735417 27.703526 -30.196194
-35.432457 29.218014 -30.317434
-33.971990 30.416502 -30.458992
-32.485673 31.563129 -30.603885
-31.182714 33.077616 -30.725125
-29.538889 33.908244 -30.890336
-28.235930 35.422731 -31.011576
-26.456235 35.980771 -31.194314
-24.948280 37.083987 -31.341998
-24.030946 38.163827 -31.427202
-22.382834 38.985855 -31.592966
-20.542587 39.422412 -31.783515
-19.039435 40.535265 -31.930579
-17.451359 41.477739 -32.088599
-15.551076 41.793850 -32.286892
-14.047925 42.906703 -32.433957
-12.179019 43.285763 -32.628203
-10.559566 44.165288 -32.790270
-8.574358 44.311018 -32.999518
-7.071207 45.423872 -33.146583
-5.262853 45.924415 -33.333018
-3.582848 46.682456 -33.502896
-1.597640 46.828187 -33.712145
0.387568 46.973918 -33.921393
2.335044 47.195349 -34.125775
3.875928 48.232502 -34.277706
5.861136 48.378233 -34.486955
7.846344 48.523963 -34.696204
9.831552 48.669694 -34.905452
11.816760 48.815424 -35.114701
13.801968 48.961155 -35.323950
15.787176 49.106886 -35.533198
17.602209 48.737793 -35.730209
19.417972 48.370906 -35.927272
21.403180 48.516637 -36.136521
23.388388 48.662367 -36.345770
25.373596 48.808098 -36.555018
27.286280 48.734422 -36.759051
29.004393 48.072118 -36.949092
30.989601 48.217849 -37.158341
32.635189 47.336138 -37.343166
34.505212 47.133403 -37.544131
36.265986 46.600159 -37.737239
37.994604 45.969638 -37.928036
39.896782 45.864179 -38.131313
41.542370 44.982469 -38.316138
43.527578 45.128199 -38.525387
45.213537 44.368618 -38.713115
46.818755 43.364779 -38.895037
48.464344 42.483068 -39.079862
50.207478 41.896460 -39.271702
51.952174 41.314577 -39.463655
53.740729 40.865378 -39.658761
54.761081 39.807231 -39.779165
56.450892 39.059307 -39.967170
58.096481 38.177596 -40.151995
59.755022 37.335073 -40.337752
61.259571 36.026680 -40.512434
62.764120 34.718287 -40.687116
64.339215 33.623314 -40.866872
65.332880 32.484430 -40.985356
67.049379 31.817242 -41.175281
68.262374 30.432710 -41.319853
69.406189 28.942180 -41.458279
70.472168 27.412350 -41.588881
71.790467 26.150217 -41.743252
72.799012 25.056348 -41.862806
73.745140 23.466005 -41.981363
74.850037 21.955825 -42.115876
75.951688 20.444006 -42.250064
76.775751 18.792031 -42.356352
77.202376 16.939387 -42.422694
78.307273 15.429207 -42.557207
78.567457 13.492526 -42.606820
79.554715 11.922950 -42.729511
79.697261 9.926872 -42.767300
79.839806 7.930794 -42.805089
79.982352 5.934717 -42.842879
80.124897 3.938639 -42.880668
80.267442 1.942561 -42.918457
80.409988 -0.053516 -42.956247
79.995856 -1.864129 -42.932792
79.673728 -3.705394 -42.919460
78.834346 -5.374329 -42.849221
78.937467 -7.357272 -42.882673
78.395041 -9.125141 -42.845104
78.201207 -11.009149 -42.845886
77.233531 -12.635341 -42.761533
75.930571 -14.149828 -42.640293
75.349816 -15.904928 -42.598507
74.046857 -17.419415 -42.477267
72.785828 -18.947872 -42.360640
72.163143 -20.689002 -42.314241
70.860184 -22.203489 -42.193001
69.557224 -23.717976 -42.071761
68.254265 -25.232463 -41.950521
66.610440 -26.063091 -41.785310
65.831341 -27.420265 -41.717938
64.385860 -28.648819 -41.578313
62.825039 -29.645972 -41.423810
61.439076 -30.993934 -41.291862
59.818737 -31.871680 -41.129681
58.315585 -32.984533 -40.982616
56.848467 -34.169677 -40.840200
55.309283 -35.210241 -40.688488
53.560817 -35.830933 -40.509778
52.257858 -37.345420 -40.388538
50.317773 -37.581679 -40.185110
48.629342 -38.322816 -40.014145
46.985517 -39.153444 -39.848934
45.341692 -39.984072 -39.683723
43.823112 -41.065970 -39.534668
42.054042 -41.645328 -39.353301
40.334752 -42.324555 -39.178355
38.349544 -42.470285 -38.969107
36.781702 -43.453352 -38.813697
34.861185 -43.728870 -38.612794
33.153186 -44.430748 -38.439304
31.372826 -44.987454 -38.256480
29.387618 -45.133185 -38.047232
27.880845 -46.238773 -37.899700
25.899259 -46.391769 -37.690919
23.914051 -46.537500 -37.481670
21.928843 -46.683230 -37.272421
19.943635 -46.828961 -37.063173
17.958427 -46.974691 -36.853924
15.973219 -47.120422 -36.644675
7.245102 -49.391321 -34.333077
5.755052 -48.253973 -34.161875
3.765439 -48.075910 -33.948485
1.775827 -47.897847 -33.735095
-0.213786 -47.719785 -33.521705
-1.980700 -47.114086 -33.327122
-3.693448 -46.404373 -33.137114
-5.600372 -46.067528 -32.930707
-7.173110 -45.088962 -32.752522
-9.162723 -44.910899 -32.539132
-10.652772 -43.773551 -32.367931
-12.486471 -43.296095 -32.167708
-14.132435 -42.458139 -31.983339
-15.752899 -41.571220 -31.801124
-17.386113 -40.708782 -31.617832
-19.019327 -39.846344 -31.434541
-20.592196 -38.868030 -31.256345
-22.285754 -38.121469 -31.067957
-23.918968 -37.259031 -30.884665
-25.198938 -35.718275 -30.731205
-26.832152 -34.855837 -30.547914
-28.465365 -33.993400 -30.364622
-30.032057 -33.003223 -30.186948
-30.652077 -31.361160 -30.102450
-32.432003 -30.780447 -29.906768
-33.922053 -29.643099 -29.735566
-34.825246 -28.544799 -29.627154
-36.105215 -27.004044 -29.473694
-37.587026 -26.093871 -29.305945
-38.291927 -24.371804 -29.211522
-39.712432 -23.100911 -29.046193
-40.478638 -21.739564 -28.949349
-41.758607 -20.198808 -28.795890
-42.312105 -18.429006 -28.717009
-43.592074 -16.888250 -28.563549
-44.602215 -15.262421 -28.437790
-45.425541 -13.577692 -28.331209
-45.979039 -11.807890 -28.252329
-47.145989 -10.231501 -28.110471
-47.812506 -8.497332 -28.019988
-47.814451 -6.553632 -27.997730
-48.193028 -4.728680 -27.936807
-48.482913 -2.875764 -27.884989
-48.303451 -0.874869 -27.881354
-48.123989 1.126025 -27.877719
-47.944527 3.126920 -27.874084
-48.781099 4.807473 -27.766143
-48.612989 6.804788 -27.761343
-47.480146 8.304491 -27.864678
-47.300683 10.305385 -27.861043
-47.121221 12.306280 -27.857408
-45.988377 13.805982 -27.960744
-45.808915 15.806877 -27.957109
-45.432613 17.570827 -27.977073
-43.721506 18.289050 -28.150708
-43.416095 20.223733 -28.161204
-42.002256 21.575717 -28.296067
-41.150408 23.223138 -28.367875
-40.056097 24.132144 -28.473818
-38.522330 25.421081 -28.622137
-37.804206 27.138802 -28.678941
-36.576171 27.977509 -28.799888
-35.042403 29.266446 -28.948207
-34.090140 30.611652 -29.034111
-32.424108 31.469532 -29.201372
-31.335567 32.381571 -29.306668
-29.801800 33.670508 -29.454987
-28.896489 35.166816 -29.534188
-27.181498 35.872539 -29.708377
-25.420822 36.431237 -29.889087
-23.887054 37.720174 -30.037406
-22.126377 38.278872 -30.218116
-20.365700 38.837569 -30.398826
-18.831933 40.126506 -30.547146
-16.894592 40.116663 -30.753074
-15.225878 40.971315 -30.920657
-13.549903 41.802599 -31.089276
-11.789226 42.361297 -31.269986
-10.028549 42.919995 -31.450696
-8.230123 43.357207 -31.636794
-6.280286 43.307151 -31.844507
-4.571796 44.033796 -32.017767
-2.758932 44.424546 -32.205927
-0.913469 44.710385 -32.398740
0.762422 45.541941 -32.567347
2.744858 45.386974 -32.779713
4.510685 45.929098 -32.961158
6.403184 46.063563 -33.160685
8.392797 45.885501 -33.374075
10.061511 46.740152 -33.541658
12.051124 46.562090 -33.755048
14.040736 46.384027 -33.968438
16.030349 46.205964 -34.181828
18.019961 46.027902 -34.395218
20.009574 45.849839 -34.608608
21.999186 45.671777 -34.821998
23.988799 45.493714 -35.035388
25.978411 45.315651 -35.248779
27.968024 45.137589 -35.462169
29.860884 44.773738 -35.667388
31.447686 43.822177 -35.846760
33.437298 43.644115 -36.060150
35.426911 43.466052 -36.273540
36.916961 42.328703 -36.444742
38.906573 42.150641 -36.658132
40.396623 41.013292 -36.829333
42.353114 40.771627 -37.039926
43.876285 39.697880 -37.213925
45.865898 39.519818 -37.427315
47.355947 38.382469 -37.598516
49.239213 38.000194 -37.802925
50.835610 37.067058 -37.983108
52.505641 36.275318 -38.169509
53.815709 34.792360 -38.325510
55.772068 34.550443 -38.536092
57.052038 33.009687 -38.689552
58.785421 32.339600 -38.881303
60.318466 31.284812 -39.056136
61.598435 29.744056 -39.209595
63.231649 28.881618 -39.392887
64.511619 27.340863 -39.546347
66.144832 26.478425 -39.729639
67.424802 24.937669 -39.883099
68.716206 23.418872 -40.037524
70.337985 22.534476 -40.219850
71.617955 20.993721 -40.373310
72.897924 19.452965 -40.526770
73.451422 17.683163 -40.605651
74.731391 16.142407 -40.759110
75.284889 14.372605 -40.837991
76.564858 12.831849 -40.991451
77.844828 11.291094 -41.144911
78.419680 9.528024 -41.225983
78.951823 7.751489 -41.302671
79.505320 5.981686 -41.381552
80.058818 4.211884 -41.460432
80.783991 2.496209 -41.556937
80.604529 0.495314 -41.560572
80.992837 -1.326570 -41.622494
81.272992 -3.182554 -41.673313
81.093529 -5.183449 -41.676948
80.914067 -7.184343 -41.680583
80.734605 -9.185238 -41.684218
80.555143 -11.186133 -41.687853
80.375681 -13.187028 -41.691488
79.906444 -15.035588 -41.662610
79.063375 -16.687625 -41.591788
78.187195 -18.322255 -41.517250
77.751069 -20.188222 -41.492087
77.142088 -21.963319 -41.447530
75.608320 -23.252256 -41.299210
75.305919 -25.188521 -41.289052
74.173075 -26.688224 -41.185716
73.029446 -28.182256 -41.081171
71.495678 -29.471193 -40.932852
70.589439 -30.964512 -40.853518
68.875376 -31.673224 -40.679462
68.015752 -33.316557 -40.606782
66.481984 -34.605494 -40.458462
64.948217 -35.894431 -40.310143
63.187540 -36.453129 -40.129433
61.653772 -37.742066 -39.981114
60.120005 -39.031003 -39.832795
58.461676 -39.919075 -39.666694
56.825561 -40.878638 -39.503765
55.124247 -41.628378 -39.331529
53.455533 -42.483030 -39.163947
51.770440 -43.284970 -38.994026
50.009763 -43.843668 -38.813316
48.449390 -45.046985 -38.661199
46.715319 -45.691302 -38.484286
44.791064 -45.723574 -38.280226
43.122350 -46.578226 -38.112643
41.433288 -47.367395 -37.942156
39.464023 -47.254815 -37.731671
37.795309 -48.109466 -37.564088
35.924348 -48.313249 -37.367635
34.136982 -48.786055 -37.183115
32.176085 -48.700405 -36.973824
30.478655 -49.462644 -36.802143
28.489043 -49.284582 -36.588753
26.499430 -49.106519 -36.375363
24.830716 -49.961171 -36.207780
22.918882 -50.033415 -36.005493
21.172389 -50.637760 -35.826807
19.182777 -50.459697 -35.613417
17.193164 -50.281635 -35.400027
15.203552 -50.103572 -35.186637
13.213939 -49.925509 -34.973247
11.224327 -49.747447 -34.759857
9.234714 -49.569384 -34.546467
