ply
format ascii 1.0
element vertex 1531
property float x
property float y
property float z
end_header
-44.333750 42.389809 -15.181821
-42.739713 43.342379 -15.348575
-41.240719 44.504905 -15.500206
-39.728854 45.594927 -15.654740
-38.741898 46.626529 -15.749406
-37.182700 47.656061 -15.910616
-35.707016 48.870078 -16.058538
-34.928892 50.557683 -16.116192
-33.384121 51.380332 -16.279744
-31.709201 52.154229 -16.459369
-30.031650 52.922313 -16.639412
-28.359362 53.702022 -16.818617
-26.684442 54.475918 -16.998242
-25.009523 55.249815 -17.177866
-23.400172 56.168556 -17.347057
-21.659683 56.797608 -17.537115
-19.861723 57.299704 -17.736317
-17.994886 57.649646 -17.946480
-16.323275 58.430852 -18.125578
-14.645046 59.197439 -18.305729
-12.784827 59.562000 -18.514839
-10.980249 60.049477 -18.715095
-9.246378 60.693149 -18.904099
-7.254445 60.766749 -19.134168
-5.640532 61.675411 -19.304085
-3.715997 61.897897 -19.523428
-1.724064 61.971497 -19.753497
0.267870 62.045098 -19.983565
2.259803 62.118698 -20.213633
3.993899 62.761871 -20.402674
5.798251 63.249846 -20.602894
7.678898 63.024015 -20.825844
9.405133 62.382713 -21.038919
11.397066 62.456313 -21.268987
13.388999 62.529914 -21.499056
15.380933 62.603514 -21.729124
17.096730 61.934128 -21.941531
18.987815 61.736380 -22.165149
20.979748 61.809981 -22.395217
22.594697 60.869247 -22.601174
24.586630 60.942847 -22.831242
26.247993 60.126998 -23.040168
28.193512 60.075714 -23.267268
29.961812 59.547595 -23.483033
31.685438 58.899272 -23.695940
33.415343 58.267846 -23.909250
35.132688 57.602626 -24.121756
36.856314 56.954303 -24.334663
38.579939 56.305980 -24.547571
40.252123 55.519244 -24.757188
42.027190 55.009334 -24.973386
43.484247 53.643768 -25.169244
45.207873 52.995445 -25.382152
46.931498 52.347122 -25.595060
48.528639 51.640564 -25.794399
49.420238 50.014655 -25.929597
51.143864 49.366332 -26.142505
52.608740 48.598877 -26.327655
53.632604 47.033865 -26.477043
55.238559 46.068930 -26.682424
56.813287 45.019976 -26.885808
58.270344 43.654410 -27.081667
59.035459 41.970266 -27.203297
60.492516 40.604700 -27.399155
61.949573 39.239134 -27.595013
62.923494 37.651127 -27.739043
64.171746 36.189424 -27.912501
65.017917 34.542599 -28.042827
66.065128 32.988335 -28.194718
66.467090 31.136991 -28.277391
67.232205 29.452846 -28.399021
68.228208 27.875005 -28.545419
69.275419 26.320742 -28.697311
69.344076 24.315940 -28.744228
69.412733 22.311138 -28.791145
69.481390 20.306336 -28.838063
69.550047 18.301533 -28.884980
69.618704 16.296731 -28.931897
69.687361 14.291929 -28.978814
69.756018 12.287127 -29.025731
69.824675 10.282325 -29.072648
68.955386 8.628871 -29.003735
68.955088 6.649899 -29.042137
68.016845 5.022274 -28.964709
67.723445 3.153095 -28.966914
66.363484 1.683443 -28.837407
65.715508 -0.052914 -28.795825
65.270771 -1.865403 -28.779341
64.104599 -2.829872 -28.662544
63.374241 -4.535369 -28.610788
62.528078 -5.682795 -28.534735
61.477710 -7.205336 -28.442235
60.485753 -8.812840 -28.358173
58.915477 -9.817899 -28.195200
57.450872 -11.056389 -28.049042
56.090910 -12.526042 -27.919534
54.752648 -14.003823 -27.792706
53.768015 -15.036295 -27.698328
52.209845 -16.068097 -27.537281
50.733133 -17.279844 -27.389196
49.116814 -18.183193 -27.218896
47.698252 -19.523394 -27.080064
46.023784 -20.298288 -26.900512
44.477269 -21.355836 -26.741319
42.930754 -22.413384 -26.582127
41.313531 -23.314736 -26.411684
39.392305 -23.544532 -26.192866
37.845790 -24.602080 -26.033674
36.288772 -25.636426 -25.872810
34.613852 -26.410323 -25.693186
32.760827 -26.790775 -25.485221
30.949055 -27.262360 -25.283821
29.222378 -27.921923 -25.095960
27.599216 -28.810153 -24.924572
25.683930 -29.053072 -24.706700
23.691997 -29.126672 -24.476632
21.700064 -29.200272 -24.246563
20.153548 -30.257820 -24.087371
18.161615 -30.331420 -23.857303
16.169682 -30.405021 -23.627234
14.177749 -30.478621 -23.397166
12.625068 -31.522548 -23.236992
10.639301 -31.609769 -23.007905
8.647367 -31.683370 -22.777837
-7.071608 -41.851739 74.526711
-8.698170 -40.898312 74.543374
-10.709962 -40.956016 74.532060
-12.336524 -40.002589 74.548722
-14.348316 -40.060294 74.537408
-16.360109 -40.117998 74.526094
-18.032088 -39.283781 74.539458
-19.613232 -38.211144 74.559419
-21.239794 -37.257717 74.576082
-22.967529 -36.569845 74.585397
-24.703476 -35.903526 74.594115
-26.439423 -35.237207 74.602834
-27.902971 -33.855910 74.631335
-29.638917 -33.189591 74.640054
-31.350431 -32.512323 74.649174
-32.140044 -30.829026 74.688761
-33.603592 -29.447728 74.717262
-35.067139 -28.066431 74.745763
-36.530687 -26.685134 74.774264
-37.994235 -25.303837 74.802765
-38.611779 -23.543433 74.845181
-39.524595 -21.915345 74.882741
-40.289774 -20.221099 74.922729
-40.760992 -18.395124 74.967553
-40.818968 -16.383970 75.019173
-41.864586 -14.815392 75.054549
-41.922563 -12.804238 75.106169
-41.224300 -11.081101 75.154050
-41.027011 -9.167165 75.204408
-41.084988 -7.156011 75.256029
-40.131460 -5.530091 75.302647
-39.989526 -3.595074 75.353279
-38.607970 -2.132170 75.397780
-37.941656 -0.396864 75.445819
-36.560099 1.066040 75.490320
-35.363818 2.599506 75.535738
-34.199092 3.566067 75.566371
-32.817535 5.028971 75.610873
-31.435979 6.491874 75.655374
-30.054423 7.954778 75.699876
-28.359729 8.719499 75.727888
-26.712111 9.589181 75.758379
-25.143162 10.634266 75.793012
-23.574212 11.679350 75.827646
-21.894092 12.476566 75.856425
-19.993470 12.782139 75.873593
-18.424521 13.827224 75.908227
-16.496875 14.072545 75.923972
-14.843779 14.930013 75.954175
-12.831987 14.987718 75.965489
-11.099657 15.668524 75.991519
-9.251245 16.090507 76.011436
-7.239452 16.148212 76.022750
-5.227660 16.205917 76.034064
-3.215868 16.263621 76.045378
-1.204076 16.321326 76.056692
0.807717 16.379031 76.068006
2.819509 16.436735 76.079320
4.831301 16.494440 76.090634
6.843094 16.552144 76.101948
8.690149 16.177456 76.101299
10.481448 15.656422 76.096600
12.162043 14.844818 76.083862
14.119802 14.760699 76.091252
15.746363 13.807272 76.074589
17.642282 13.560839 76.077488
19.378229 12.894520 76.068769
21.011279 11.958123 76.052578
22.850123 11.561882 76.051332
24.586070 10.895563 76.042613
26.049617 9.514265 76.014112
27.517526 8.144414 75.985928
29.249112 7.466649 75.976893
30.712660 6.085352 75.948392
32.397211 5.284132 75.935940
33.213786 3.724787 75.899685
34.654734 2.926274 75.886114
35.700352 1.357697 75.850738
36.480093 -0.330024 75.810990
37.245273 -2.024270 75.771002
38.010453 -3.718516 75.731014
38.895182 -5.359190 75.692992
39.940800 -6.927768 75.657616
39.998777 -8.938922 75.605996
40.056753 -10.950076 75.554375
40.114730 -12.961230 75.502755
40.172707 -14.972384 75.451134
39.219178 -16.598303 75.404516
39.213535 -18.585227 75.353210
38.323627 -20.235377 75.306277
37.370098 -21.861296 75.259659
37.214592 -23.791145 75.209094
35.833035 -25.254048 75.164592
34.451479 -26.716952 75.120091
33.069923 -28.179856 75.075589
31.688366 -29.642760 75.031088
30.747602 -30.766141 74.997501
29.327359 -32.142787 74.955037
27.945802 -33.605691 74.910536
26.251109 -34.370412 74.882524
24.471804 -34.946480 74.858967
22.861722 -35.899853 74.826499
21.167028 -36.664574 74.798487
19.472335 -37.429295 74.770475
17.753163 -38.139438 74.743752
15.769811 -38.260554 74.730941
14.172422 -39.242228 74.697805
12.603472 -40.287312 74.663171
10.591680 -40.345017 74.651857
8.579887 -40.402722 74.640543
6.983206 -41.385975 74.607370
4.999146 -41.505511 74.594595
2.987353 -41.563216 74.583281
0.975561 -41.620920 74.571967
-1.036231 -41.678625 74.560653
-3.048024 -41.736330 74.549339
-5.059816 -41.794034 74.538025
-6.070649 -41.072391 75.552236
-7.663271 -40.066749 75.570412
-9.673722 -40.059216 75.560788
-11.684173 -40.051682 75.551164
-13.509159 -39.601111 75.553880
-15.287247 -39.038508 75.559716
-16.932965 -38.159701 75.574359
-18.890320 -38.025333 75.568268
-20.652221 -37.424061 75.575181
-22.364124 -36.703357 75.585421
-24.076027 -35.982652 75.595660
-25.678639 -35.000875 75.613172
-27.271262 -33.995233 75.631347
-28.916287 -33.114770 75.646037
-30.456507 -31.983950 75.667699
-32.044644 -30.967592 75.686173
-33.461098 -29.541118 75.716070
-34.877551 -28.114645 75.745967
-36.020092 -27.160662 75.765008
-37.416017 -25.959830 75.789182
-38.010613 -24.547291 75.822732
-39.009801 -22.949856 75.859079
-39.999011 -21.348333 75.895580
-40.993211 -19.748854 75.932004
-41.134699 -17.800003 75.981609
-41.980127 -16.139570 76.020333
-42.551298 -14.366768 76.063296
-42.967044 -12.530286 76.108661
-42.660681 -10.645634 76.158796
-41.953998 -8.928497 76.206563
-41.946715 -6.918692 76.258468
-41.939433 -4.908887 76.310372
-41.189865 -3.209696 76.357886
-40.469145 -1.498433 76.405569
-39.677615 0.040161 76.449143
-38.031345 0.920686 76.479907
-37.911217 2.883269 76.531144
-36.589905 4.343211 76.575275
-34.872825 5.051067 76.601929
-33.446072 6.466886 76.645436
-32.656906 8.011243 76.689146
-31.008272 8.886005 76.719773
-29.291193 9.593861 76.746427
-27.864440 11.009680 76.789934
-26.257437 11.985958 76.822978
-24.430281 12.425391 76.843242
-22.713202 13.133247 76.869896
-21.047251 13.965782 76.899517
-19.279043 14.548958 76.923203
-17.436933 14.951927 76.942599
-15.554557 15.256706 76.959658
-13.826615 15.938072 76.985681
-12.120398 16.672417 77.012965
-10.216297 16.924218 77.028763
-8.205846 16.916684 77.038386
-6.195395 16.909151 77.048010
-4.184944 16.901617 77.057634
-2.174493 16.894084 77.067258
-0.164042 16.886550 77.076882
1.846409 16.879017 77.086505
3.856859 16.871483 77.096129
5.867310 16.863950 77.105753
7.877761 16.856416 77.115377
9.666903 16.320220 77.110276
11.480835 15.843241 77.106825
13.090709 14.878811 77.089797
15.083908 14.830066 77.098273
16.676531 13.824425 77.080097
18.521868 13.422467 77.078735
19.938321 11.995993 77.048838
21.872227 11.805609 77.053369
23.362128 10.554584 77.028359
25.057473 9.794326 77.017018
26.650095 8.788684 76.998842
28.497837 8.392470 76.997640
29.206136 6.675853 76.956797
30.622590 5.249379 76.926900
32.039044 3.822906 76.897003
33.455498 2.396432 76.867106
34.871952 0.969959 76.837209
35.580251 -0.746659 76.796366
36.288550 -2.463277 76.755522
37.705004 -3.889750 76.725625
38.057118 -5.752303 76.679276
38.413448 -7.613129 76.632993
39.044035 -9.361587 76.590948
39.036753 -11.371392 76.539044
39.029470 -13.381196 76.487139
38.922494 -15.349284 76.435824
38.016424 -16.982986 76.389237
38.009141 -18.992791 76.337333
37.466366 -20.778515 76.288596
36.745646 -22.489778 76.240912
35.318893 -23.905598 76.197405
34.598172 -25.616861 76.149721
33.171419 -27.032680 76.106214
31.744666 -28.448500 76.062707
30.317913 -29.864320 76.019200
28.964551 -31.310850 75.975259
27.846890 -32.202422 75.946791
26.163034 -32.991294 75.918209
24.736281 -34.407113 75.874701
23.047288 -35.183458 75.846417
21.302122 -35.822825 75.821394
19.585043 -36.530680 75.794740
18.833462 -38.166689 75.748848
16.823011 -38.159156 75.739224
15.139837 -38.949690 75.710602
13.212693 -39.145301 75.696142
11.415352 -39.657438 75.674147
9.602375 -40.131446 75.653060
7.591924 -40.123913 75.643437
5.973787 -41.073041 75.611039
3.981606 -41.110058 75.600355
1.971155 -41.102525 75.590731
-0.039296 -41.094991 75.581107
-2.049747 -41.087458 75.571483
-4.060198 -41.079924 75.561860
5.523496 -35.404953 -11.685316
3.888392 -34.510737 -11.465559
1.904316 -34.641008 -11.231048
-0.079760 -34.771279 -10.996537
-2.063836 -34.901549 -10.762026
-4.047913 -35.031820 -10.527516
-5.884286 -34.728476 -10.299249
-7.374314 -33.408361 -10.085625
-9.302196 -33.373659 -9.853490
-11.286272 -33.503929 -9.618979
-12.921375 -32.609713 -9.399222
-14.814995 -32.474429 -9.168535
-16.540555 -31.845768 -8.944953
-18.175658 -30.951552 -8.725196
-19.810761 -30.057336 -8.505438
-21.515392 -29.367232 -8.282742
-23.252181 -28.771538 -8.058685
-24.988971 -28.175845 -7.834629
-26.700148 -27.504959 -7.611655
-28.462550 -26.984457 -7.386516
-29.970354 -25.716527 -7.172140
-31.006652 -24.730468 -7.021770
-32.660057 -23.889980 -6.801239
-34.233470 -22.814659 -6.584089
-35.930263 -22.101548 -6.361724
-37.460288 -20.898849 -6.146409
-38.267600 -19.240554 -6.005719
-39.906096 -18.356298 -5.785818
-40.811702 -16.986565 -5.640973
-42.548491 -16.390871 -5.416917
-43.506255 -14.807101 -5.260154
-44.594903 -13.288164 -5.089409
-45.653145 -11.754165 -4.921913
-46.772200 -10.250290 -4.747920
-47.950485 -8.775754 -4.567599
-48.949497 -7.212416 -4.406430
-50.038145 -5.693479 -4.235685
-50.161287 -3.696284 -4.168086
-51.179735 -2.142573 -4.004841
-51.373078 -0.180151 -3.929741
-52.111643 1.512198 -3.796396
-52.584868 3.335982 -3.691397
-52.708011 5.333177 -3.623797
-52.831153 7.330373 -3.556198
-52.954295 9.327569 -3.488598
-53.077437 11.324764 -3.420998
-53.200579 13.321960 -3.353399
-52.307262 14.971029 -3.416915
-52.365683 16.946059 -3.357664
-51.537087 18.617294 -3.412832
-51.660229 20.614490 -3.345232
-50.240538 21.511278 -3.491778
-49.837566 23.328285 -3.492044
-49.046270 25.012296 -3.542400
-49.067391 26.974550 -3.487961
-47.518259 27.827006 -3.651203
-46.228268 29.340219 -3.765888
-45.271503 30.395554 -3.852720
-44.405605 32.054014 -3.912699
-43.358490 33.650409 -3.996055
-42.618971 35.352152 -4.039732
-41.111733 36.218957 -4.197571
-39.462111 37.036996 -4.373776
-38.850502 38.782547 -4.400954
-37.215355 39.605544 -4.575293
-35.847514 41.003036 -4.702375
-34.249853 41.927929 -4.869522
-32.933974 43.432275 -4.987546
-31.311237 44.305601 -5.159064
-29.634729 45.068354 -5.339957
-28.287053 46.507311 -5.463524
-26.335485 46.704432 -5.692368
-24.790884 47.738437 -5.850265
-23.278792 48.839292 -6.002494
-21.720361 49.844857 -6.162802
-19.782623 50.070417 -6.389235
-18.087373 50.794628 -6.573395
-16.437751 51.612668 -6.749600
-14.774363 52.402398 -6.928205
-12.804763 52.562439 -7.160192
-11.278194 53.633524 -7.314946
-9.294118 53.763795 -7.549456
-7.310041 53.894065 -7.783967
-5.538788 54.461983 -7.981377
-3.813873 55.125191 -8.170708
-1.829797 55.255462 -8.405218
0.154280 55.385732 -8.639729
2.138356 55.516003 -8.874240
3.710553 56.493259 -9.036948
5.634524 56.747129 -9.260980
7.618601 56.877400 -9.495491
9.398779 56.409083 -9.721382
11.237780 56.113454 -9.949759
13.221857 56.243725 -10.184270
15.205933 56.373996 -10.418781
17.190009 56.504266 -10.653292
19.069771 56.328300 -10.883392
20.809189 55.740321 -11.107560
22.793265 55.870592 -11.342071
24.526901 55.265640 -11.565994
26.412445 55.106647 -11.796339
28.247241 54.798674 -12.024539
29.984031 54.202980 -12.248595
31.666728 53.448485 -12.470365
33.457610 53.011592 -12.696708
35.194399 52.415899 -12.920764
36.921011 51.790324 -13.144390
38.667978 51.224511 -13.368877
40.404768 50.628817 -13.592933
42.141558 50.033123 -13.816990
43.810397 49.237947 -14.038174
45.118965 48.595960 -14.212097
46.500099 47.411400 -14.409075
48.159238 46.587747 -14.629849
49.770306 45.622968 -14.848590
51.386056 44.671937 -15.067529
53.040512 43.834536 -15.288105
54.612874 42.756128 -15.505210
56.102903 41.436013 -15.718834
57.596850 40.127401 -15.932624
58.647005 39.182024 -16.083580
60.137033 37.861909 -16.297205
60.944345 36.203613 -16.437894
62.627281 35.449821 -16.659674
63.488447 33.949624 -16.802640
64.978476 32.629509 -17.016265
65.785788 30.971213 -17.156954
66.593100 29.312918 -17.297644
68.083129 27.992803 -17.511268
68.396516 26.089844 -17.599192
69.485164 24.570907 -17.769936
69.608306 22.573711 -17.837536
70.629662 21.021441 -18.001092
70.820097 19.057579 -18.075881
70.943239 17.060383 -18.143480
71.066381 15.063187 -18.211080
71.189523 13.065991 -18.278679
71.312665 11.068796 -18.346279
71.435807 9.071600 -18.413879
70.542490 7.422531 -18.350362
70.665632 5.425335 -18.417962
70.424809 3.552794 -18.438612
69.827675 1.802285 -18.413302
69.002140 0.130001 -18.358529
68.108823 -1.519068 -18.295012
67.317528 -3.203078 -18.244656
66.720394 -4.953587 -18.219345
65.428872 -6.466275 -18.104463
65.514105 -8.429884 -18.166627
63.876504 -9.272643 -17.992518
62.560624 -10.776989 -17.874494
61.244745 -12.281335 -17.756470
60.518224 -13.765774 -17.708603
58.997989 -14.849883 -17.554953
57.682110 -16.354229 -17.436929
56.366230 -17.858575 -17.318905
54.716608 -18.676614 -17.142700
53.400729 -20.180960 -17.024676
51.751107 -20.999000 -16.848471
50.101484 -21.817039 -16.672265
48.785605 -23.321385 -16.554241
46.909394 -23.673468 -16.338535
45.486361 -24.957463 -16.201830
43.885209 -25.875178 -16.034075
42.373117 -26.976033 -15.881845
40.861025 -28.076888 -15.729615
39.221615 -28.915927 -15.555190
37.364856 -29.308014 -15.342875
35.588627 -29.865699 -15.144598
33.868688 -30.539140 -14.956134
31.955639 -30.815471 -14.734006
30.372519 -31.770265 -14.569394
28.388443 -31.900536 -14.334883
26.673029 -32.583282 -14.147208
24.892275 -33.131662 -13.948142
23.040041 -33.533054 -13.736616
21.396106 -34.362787 -13.561402
19.412030 -34.493058 -13.326891
17.427953 -34.623329 -13.092380
15.443877 -34.753600 -12.857870
13.459801 -34.883870 -12.623359
11.475725 -35.014141 -12.388848
9.491648 -35.144412 -12.154338
7.507572 -35.274682 -11.919827
-1.471202 -35.922672 -10.141509
-2.997838 -34.854832 -9.930168
-4.981710 -34.767641 -9.689929
-6.965582 -34.680451 -9.449690
-8.492218 -33.612611 -9.238349
-10.420188 -33.405524 -9.001643
-12.002726 -32.457581 -8.786769
-13.741130 -31.843925 -8.562044
-15.513234 -31.302550 -8.335189
-17.385387 -30.975751 -8.102011
-19.023743 -30.147520 -7.883609
-21.007615 -30.060329 -7.643370
-22.534251 -28.992489 -7.432029
-24.060887 -27.924650 -7.220687
-25.687743 -27.071755 -7.003012
-27.114158 -25.788970 -6.798004
-28.685370 -24.816734 -6.583846
-30.345841 -24.035934 -6.364046
-31.694066 -22.585451 -6.163980
-33.343468 -21.780913 -5.944880
-35.003939 -21.000113 -5.725080
-36.341096 -19.525891 -5.525714
-38.001567 -18.745092 -5.305914
-39.338723 -17.270869 -5.106548
-40.853881 -16.178412 -4.895932
-42.238690 -14.980099 -4.698149
-42.243693 -13.018242 -4.645653
-43.814581 -12.045312 -4.431514
-44.526413 -10.501529 -4.305305
-45.863569 -9.027306 -4.105939
-46.485819 -7.291392 -3.985391
-47.822975 -5.817169 -3.786025
-49.160131 -4.342946 -3.586659
-49.611344 -2.544425 -3.484968
-50.404630 -0.871118 -3.345563
-50.436679 1.080838 -3.290085
-51.354862 2.708426 -3.136911
-51.556471 4.598315 -3.062739
-52.180197 6.333689 -2.942029
-52.087349 8.331364 -2.900321
-51.994501 10.329039 -2.858613
-51.901653 12.326714 -2.816905
-51.808805 14.324389 -2.775197
-51.715957 16.322064 -2.733489
-51.623109 18.319739 -2.691781
-50.842683 19.994143 -2.741088
-50.464836 21.857823 -2.737106
-49.399411 23.398231 -2.824138
-49.188157 25.340237 -2.798103
-48.241138 26.936315 -2.869462
-47.175713 28.476724 -2.956494
-46.158200 30.039659 -3.037185
-45.377453 31.713912 -3.086534
-43.908990 33.064828 -3.226916
-42.914013 34.638358 -3.304623
-41.659780 36.089997 -3.416648
-40.191317 37.440914 -3.557031
-38.722854 38.791830 -3.697413
-37.254391 40.142747 -3.837796
-35.528258 40.774705 -4.028099
-34.603499 42.381250 -4.096512
-32.817596 42.512321 -4.307234
-31.554454 43.834745 -4.423745
-30.256827 44.668170 -4.557327
-28.788364 46.019087 -4.697710
-27.285097 47.272892 -4.844835
-25.301224 47.185701 -5.085074
-23.609964 47.914963 -5.268622
-22.062281 49.044839 -5.424352
-20.415368 49.897838 -5.599308
-18.689234 50.529797 -5.789612
-16.839466 50.816787 -6.003869
-15.219995 51.746356 -6.173508
-13.510835 52.425673 -6.360524
-11.616651 52.588735 -6.583386
-9.800898 52.970633 -6.791053
-8.013308 53.431113 -6.993263
-6.090961 53.515593 -7.221582
-4.409964 54.273492 -7.403141
-2.638694 54.779510 -7.602190
-0.806620 55.115870 -7.813019
1.177252 55.028680 -8.053258
3.161124 54.941489 -8.293496
5.144997 54.854298 -8.533735
7.022654 55.063473 -8.753395
8.748340 55.696677 -8.943613
10.732213 55.609486 -9.183851
12.716085 55.522295 -9.424090
14.699957 55.435105 -9.664329
16.683830 55.347914 -9.904567
18.344516 54.567577 -10.124381
20.194338 54.192884 -10.356147
22.178210 54.105693 -10.596386
24.162082 54.018502 -10.836625
25.688718 52.950663 -11.047966
27.672590 52.863472 -11.288205
29.600603 52.656477 -11.524913
31.183099 51.708441 -11.739785
32.709734 50.640602 -11.951126
34.693607 50.553411 -12.191365
36.565802 50.226704 -12.424546
38.204115 49.398381 -12.642945
39.730751 48.330541 -12.854286
41.714623 48.243350 -13.094525
43.207687 47.103508 -13.303745
44.767895 46.107671 -13.517208
46.294530 45.039831 -13.728549
47.865785 44.067687 -13.942711
49.526256 43.286888 -14.162511
51.186727 42.506089 -14.382310
52.523884 41.031866 -14.581677
54.184355 40.251067 -14.801476
55.521511 38.776844 -15.000843
57.181982 37.996045 -15.220643
58.519138 36.521822 -15.420009
60.034253 35.429273 -15.630622
61.516765 34.266800 -15.839175
62.337383 32.603499 -15.981593
63.476171 31.056664 -16.159089
64.813327 29.582441 -16.358455
66.171974 28.154310 -16.559180
67.048337 27.048263 -16.693543
67.718297 25.329814 -16.819350
68.340546 23.593900 -16.939898
68.962795 21.857986 -17.060446
70.299952 20.383763 -17.259812
70.628220 18.540238 -17.347948
71.544450 16.911935 -17.500907
71.453555 14.914975 -17.542830
71.360707 12.917300 -17.584538
72.278890 11.289712 -17.737713
72.186042 9.292037 -17.779421
72.093194 7.294362 -17.821129
72.000346 5.296687 -17.862836
71.907498 3.299012 -17.904544
71.814651 1.301337 -17.946252
70.749225 -0.239072 -17.859220
70.656378 -2.236747 -17.900928
69.757683 -3.855546 -17.835966
69.498105 -5.774831 -17.855604
68.883905 -7.527387 -17.828300
68.103157 -9.201640 -17.778951
66.634694 -10.552557 -17.638568
65.853947 -12.226809 -17.589219
65.073200 -13.901062 -17.539869
63.604737 -15.251978 -17.399487
62.753283 -16.728942 -17.336439
61.097857 -17.558190 -17.159834
60.095325 -18.613614 -17.067515
58.590977 -19.864401 -16.920180
57.122514 -21.215318 -16.779798
55.654051 -22.566234 -16.639416
54.185588 -23.917151 -16.499033
52.459454 -24.549110 -16.308729
50.990991 -25.900026 -16.168347
50.068812 -27.179652 -16.091596
48.226441 -27.487280 -15.878772
46.500307 -28.119238 -15.688468
44.845997 -28.951600 -15.512079
43.226526 -29.881169 -15.342440
41.579578 -30.734072 -15.167478
39.853445 -31.366031 -14.977174
38.127311 -31.997990 -14.786870
36.384239 -32.582686 -14.593284
34.675045 -33.261907 -14.406262
32.780896 -33.425065 -14.183407
31.161424 -34.354634 -14.013768
29.177552 -34.267443 -13.773529
27.512841 -35.070784 -13.595125
25.574208 -35.109822 -13.363651
23.802904 -35.615744 -13.164596
21.970865 -35.952200 -12.953774
19.986992 -35.865009 -12.713535
18.109164 -36.073705 -12.493841
16.383649 -36.707388 -12.303657
14.399776 -36.620197 -12.063418
12.415904 -36.533007 -11.823180
10.432032 -36.445816 -11.582941
8.448159 -36.358625 -11.342702
6.464287 -36.271435 -11.102464
4.480415 -36.184244 -10.862225
2.496543 -36.097053 -10.621986
0.512670 -36.009863 -10.381748
2.114866 -35.739431 -9.992835
0.517647 -34.771115 -9.775661
-1.474485 -34.810364 -9.537777
-3.466617 -34.849613 -9.299892
-5.063837 -33.881296 -9.082718
-7.055969 -33.920545 -8.844833
-8.989017 -33.809050 -8.610047
-10.645320 -32.991477 -8.389774
-12.637452 -33.030726 -8.151890
-14.234672 -32.062410 -7.934716
-15.833115 -31.097215 -7.717477
-17.823385 -31.131713 -7.479690
-19.255165 -29.741298 -7.271192
-21.018463 -29.196709 -7.045309
-22.956459 -29.097838 -6.810263
-24.388239 -27.707423 -6.601765
-26.099264 -27.029464 -6.378623
-27.802254 -26.331008 -6.155902
-29.242068 -24.961091 -5.946982
-30.953093 -24.283132 -5.723840
-32.593914 -23.426058 -5.504379
-34.191134 -22.457742 -5.287205
-35.806922 -21.536800 -5.069057
-36.871997 -19.985143 -4.900274
-38.006338 -18.533769 -4.725836
-38.987086 -17.464878 -4.579937
-40.619235 -16.585678 -4.360931
-41.432681 -15.089938 -4.223806
-42.922926 -14.314901 -4.024574
-43.878276 -12.714998 -3.867675
-45.310055 -11.324583 -3.659177
-46.044625 -9.627601 -3.526188
-47.476405 -8.237186 -3.317690
-48.210975 -6.540204 -3.184701
-49.035212 -4.882649 -3.042002
-49.680115 -3.146241 -2.918724
-50.414684 -1.449259 -2.785735
-51.105351 0.267027 -2.657501
-51.186614 2.251271 -2.595267
-52.156776 3.844662 -2.436763
-52.189486 5.850255 -2.379787
-52.222197 7.855848 -2.322811
-52.254907 9.861440 -2.265835
-52.287618 11.867033 -2.208859
-52.320329 13.872626 -2.151883
-52.353039 15.878219 -2.094907
-52.385750 17.883811 -2.037931
-51.418952 19.494972 -2.111263
-50.527295 21.135785 -2.174799
-49.848534 22.860612 -2.210579
-49.169773 24.585439 -2.246359
-48.551271 26.334046 -2.274283
-47.812250 28.035093 -2.317919
-47.133489 29.759921 -2.353699
-45.445671 30.504843 -2.536420
-44.674533 32.193216 -2.584243
-43.381390 33.675592 -2.700121
-41.995870 35.121513 -2.828043
-40.308052 35.866436 -3.010764
-39.798288 37.657954 -3.024511
-38.573931 38.442797 -3.150591
-36.960413 39.360014 -3.319843
-35.574893 40.805935 -3.447765
-34.189373 42.251857 -3.575686
-32.501555 42.996780 -3.758407
-31.759898 44.575757 -3.805588
-30.134976 45.466529 -3.976907
-28.203148 45.645617 -4.203860
-26.638530 46.676229 -4.364248
-25.071522 47.701297 -4.525069
-23.383704 48.446220 -4.707789
-21.695886 49.191142 -4.890510
-20.008068 49.936065 -5.073230
-18.387927 50.837922 -5.243682
-16.632433 51.425910 -5.438671
-14.831177 51.907783 -5.641955
-12.954499 52.214756 -5.858911
-11.274428 52.977643 -6.040227
-9.282296 53.016892 -6.278111
-7.717678 54.047503 -6.438499
-5.725546 54.086752 -6.676383
-3.733414 54.126001 -6.914268
-2.168796 55.156612 -7.074655
-0.176664 55.195861 -7.312540
1.815467 55.235110 -7.550425
3.747353 55.414065 -7.777388
5.372217 56.304970 -7.948697
7.364349 56.344219 -8.186581
9.356481 56.383468 -8.424466
11.348612 56.422717 -8.662351
13.112203 55.878875 -8.888250
14.937964 55.493650 -9.117409
16.930096 55.532899 -9.355294
18.922228 55.572148 -9.593179
20.914359 55.611397 -9.831063
22.511579 54.643080 -10.048237
24.503711 54.682329 -10.286122
26.206356 53.982991 -10.508825
28.093063 53.753262 -10.741181
30.085194 53.792511 -10.979065
31.682414 52.824194 -11.196240
33.608945 52.696070 -11.430684
35.271766 51.895126 -11.651298
37.030994 51.340153 -11.876969
38.742019 50.662194 -12.100111
40.453043 49.984236 -12.323254
42.055557 49.029426 -12.540705
43.875093 48.628319 -12.769538
45.306873 47.237904 -12.978036
47.017897 46.559945 -13.201179
48.728922 45.881986 -13.424321
50.160702 44.491571 -13.632819
51.871726 43.813613 -13.855962
53.303506 42.423198 -14.064460
54.833316 41.282893 -14.278099
56.446311 40.354824 -14.496100
58.027755 39.346259 -14.712447
58.891905 37.979884 -14.852231
60.323685 36.589469 -15.060729
61.755465 35.199054 -15.269227
63.440180 34.453970 -15.490990
64.201059 32.824114 -15.625358
65.569607 31.405895 -15.827008
65.670199 29.430150 -15.891336
67.101979 28.039735 -16.099834
67.836549 26.342754 -16.232822
68.658461 24.684177 -16.375270
69.677175 23.112135 -16.539033
70.695889 21.540093 -16.702795
70.728600 19.534500 -16.759771
70.812188 17.551278 -16.822257
71.780025 15.956865 -16.980509
71.812735 13.951272 -17.037485
71.845446 11.945680 -17.094461
71.878157 9.940087 -17.151437
71.910867 7.934494 -17.208413
71.943578 5.928901 -17.265389
71.976288 3.923309 -17.322365
71.009491 2.312148 -17.249033
70.826949 0.391500 -17.277946
70.075405 -1.304605 -17.232677
69.469427 -3.058155 -17.206386
68.790665 -4.782982 -17.170606
67.405145 -6.228903 -17.042684
66.726384 -7.953731 -17.006904
66.047623 -9.678558 -16.971124
64.662103 -11.124479 -16.843202
63.276583 -12.570401 -16.715280
61.891063 -14.016322 -16.587359
61.143041 -15.580541 -16.539024
59.524484 -16.486072 -16.368858
58.595348 -17.630306 -16.287692
57.157904 -18.955822 -16.150358
55.772384 -20.401743 -16.022436
54.386864 -21.847665 -15.894514
52.764390 -22.744113 -15.723639
51.199772 -23.774724 -15.563252
49.625708 -24.783431 -15.401152
47.937891 -25.528354 -15.218431
46.250073 -26.273276 -15.035711
44.562255 -27.018199 -14.852990
42.949169 -27.936418 -14.683817
41.384551 -28.967029 -14.523429
39.498801 -29.252967 -14.304829
37.827801 -30.036889 -14.125157
36.263183 -31.067500 -13.964770
34.271051 -31.106749 -13.726885
32.706433 -32.137361 -13.566498
30.757413 -32.276581 -13.336428
29.149684 -33.207221 -13.168226
27.157552 -33.246470 -12.930341
25.592934 -34.277081 -12.769954
23.600802 -34.316330 -12.532069
21.608670 -34.355579 -12.294184
20.025909 -35.344118 -12.130508
18.051921 -35.425439 -11.895912
16.059789 -35.464688 -11.658028
14.067657 -35.503937 -11.420143
12.075525 -35.543186 -11.182258
10.083394 -35.582435 -10.944374
8.091262 -35.621684 -10.706489
6.099130 -35.660933 -10.468605
4.106998 -35.700182 -10.230720
-26.044720 -50.265746 -56.283113
-27.555782 -49.146268 -56.184343
-29.554962 -48.992040 -56.045473
-31.554142 -48.837811 -55.906603
-33.337436 -48.256670 -55.785468
-35.064384 -47.564105 -55.668963
-37.063565 -47.409877 -55.530092
-38.979550 -47.091131 -55.398057
-40.573806 -46.136171 -55.292452
-42.572987 -45.981942 -55.153582
-44.276511 -45.243057 -55.039001
-45.927114 -44.399521 -54.928767
-47.577716 -43.555986 -54.818533
-49.105351 -42.469282 -54.718402
-50.616413 -41.349805 -54.619632
-52.529525 -41.025379 -54.487832
-53.834976 -39.499309 -54.405954
-55.485579 -38.655773 -54.295720
-57.148777 -37.837145 -54.184452
-58.786785 -36.968702 -54.075253
-60.437388 -36.125166 -53.965019
-61.742838 -34.599097 -53.883140
-63.193023 -33.359237 -53.789372
-64.704084 -32.239760 -53.690602
-65.623873 -31.148190 -53.633013
-67.143552 -30.045755 -53.533535
-68.579926 -28.778585 -53.440900
-69.296100 -27.059427 -53.401428
-70.465205 -25.488681 -53.329362
-72.113255 -24.644309 -53.219312
-72.695637 -22.881311 -53.189468
-73.859635 -21.308891 -53.117768
-74.580916 -19.591406 -53.077929
-75.606016 -17.973474 -53.016225
-76.466196 -16.301502 -52.966390
-77.352396 -14.638056 -52.914682
-77.625853 -12.773833 -52.907069
-78.072592 -10.966388 -52.886987
-78.785510 -9.246163 -52.847749
-78.792788 -7.294720 -52.859291
-78.639793 -5.290760 -52.882368
-79.073752 -3.479128 -52.863205
-79.359989 -1.619092 -52.854672
-79.206995 0.384867 -52.877749
-79.054000 2.388827 -52.900825
-78.901006 4.392786 -52.923901
-77.784886 5.907028 -53.011314
-77.631892 7.910987 -53.034390
-76.763858 9.551372 -53.105231
-76.362778 11.429189 -53.144880
-75.246659 12.943430 -53.232292
-74.241502 14.514093 -53.312293
-73.014420 15.971913 -53.407118
-72.454789 17.500516 -53.455699
-70.826771 18.416348 -53.575218
-69.959827 20.057287 -53.645986
-68.966079 21.242996 -53.722812
-67.523002 22.375025 -53.830732
-66.281433 23.218758 -53.922778
-64.759616 24.526716 -54.037291
-63.237798 25.834673 -54.151804
-61.715981 27.142630 -54.266318
-60.194164 28.450588 -54.380831
-58.577392 29.467695 -54.500190
-56.913026 30.339019 -54.621976
-55.250791 31.216871 -54.743654
-53.587491 32.091459 -54.865387
-51.872568 32.807924 -54.989753
-50.260890 33.840635 -55.108852
-48.591430 34.696355 -55.230898
-46.598409 34.560994 -55.369454
-44.835286 35.129820 -55.496280
-43.075966 35.710294 -55.622911
-41.272628 36.155942 -55.751789
-39.557325 36.871242 -55.876175
-37.798004 37.451716 -56.002806
-35.946847 37.750889 -56.134124
-34.041861 37.885181 -56.268188
-32.284366 38.471249 -56.394726
-30.285717 38.318646 -56.533570
-28.621886 39.191608 -56.655329
-26.622705 39.037380 -56.794199
-24.623525 38.883151 -56.933069
-22.773429 39.185575 -57.064333
-20.961044 39.603510 -57.193672
-18.961864 39.449282 -57.332542
-16.962683 39.295053 -57.471412
-14.963503 39.140824 -57.610282
-12.964323 38.986596 -57.749152
-10.965142 38.832367 -57.888023
-8.965962 38.678139 -58.026893
-6.966781 38.523910 -58.165763
-4.967601 38.369681 -58.304633
-3.076364 38.001997 -58.434635
-1.457359 37.095976 -58.542273
0.541821 36.941747 -58.681143
2.220597 36.153923 -58.793692
4.052063 35.668041 -58.918784
5.563124 34.548564 -59.017554
7.562305 34.394335 -59.156424
9.513313 34.144848 -59.291336
11.072547 33.120630 -59.394064
12.814519 32.457776 -59.511804
14.582788 31.846924 -59.631704
16.115725 30.770705 -59.732271
17.766328 29.927169 -59.842505
19.416931 29.083633 -59.952739
21.067534 28.240098 -60.062972
22.626214 27.214787 -60.165654
24.137276 26.095310 -60.264424
25.773132 25.628814 -60.375955
26.599171 23.945656 -60.423334
28.575924 23.747076 -60.560361
29.174755 22.020819 -60.591583
30.825358 21.177283 -60.701816
32.526452 20.433594 -60.816198
33.400942 19.252447 -60.870065
34.706392 17.726377 -60.951944
36.104745 16.800186 -61.044025
36.936824 15.119007 -61.091838
38.587427 14.275471 -61.202072
39.167255 12.511636 -61.231732
39.747084 10.747801 -61.261392
41.052535 9.221732 -61.343271
42.357985 7.695662 -61.425149
42.937814 5.931828 -61.454810
44.161041 4.378816 -61.530771
44.008047 2.374856 -61.507695
44.677300 0.640323 -61.543790
44.728243 -1.296812 -61.535390
45.601433 -2.964520 -61.586162
45.691164 -4.888946 -61.580553
46.321628 -6.636189 -61.613857
46.168634 -8.640148 -61.590781
46.015640 -10.644108 -61.567705
45.862645 -12.648067 -61.544628
44.746526 -14.162309 -61.457215
44.593532 -16.166268 -61.434139
44.440537 -18.170228 -61.411063
43.324418 -19.684470 -61.323650
43.171423 -21.688429 -61.300574
42.888281 -23.626213 -61.268803
41.902310 -25.206630 -61.190084
40.786190 -26.720872 -61.102672
39.684894 -28.242650 -61.016249
38.553951 -29.749355 -60.927846
37.322291 -31.204848 -60.832715
35.800474 -32.512805 -60.718201
34.278657 -33.820762 -60.603688
32.519336 -34.401236 -60.477056
31.678551 -36.055476 -60.408036
30.156734 -37.363434 -60.293522
28.634916 -38.671391 -60.179009
26.893311 -39.306126 -60.053281
25.353779 -40.559822 -59.937864
23.831961 -41.867780 -59.823350
22.072641 -42.448254 -59.696719
20.313320 -43.028728 -59.570087
18.791503 -44.336685 -59.455574
17.032183 -44.917159 -59.328942
15.250208 -45.428242 -59.201154
13.513542 -46.078107 -59.075679
11.754221 -46.658581 -58.949047
9.994901 -47.239055 -58.822415
8.261127 -47.897778 -58.697087
6.597826 -48.772366 -58.575355
4.598646 -48.618137 -58.436484
2.935346 -49.492725 -58.314752
0.960796 -49.413942 -58.177139
-0.727135 -50.213084 -58.054150
-2.726316 -50.058856 -57.915279
-4.725496 -49.904627 -57.776409
-6.388796 -50.779215 -57.654677
-8.387977 -50.624987 -57.515807
-10.387157 -50.470758 -57.376937
-12.386338 -50.316529 -57.238066
-14.301283 -50.420318 -57.103494
-16.048818 -51.036889 -56.977464
-18.047999 -50.882660 -56.838594
-20.047179 -50.728432 -56.699724
-22.046359 -50.574203 -56.560853
-24.045540 -50.419974 -56.421983
-16.286778 -53.968507 -56.081233
-17.779502 -52.635688 -55.985063
-19.567816 -52.154657 -55.862959
-21.563044 -52.269880 -55.722701
-23.558272 -52.385102 -55.582443
-25.506118 -52.363786 -55.446343
-27.194019 -51.593399 -55.333049
-29.189247 -51.708622 -55.192791
-30.987558 -51.256400 -55.069810
-32.824994 -50.916919 -54.943396
-34.725458 -50.759065 -54.811453
-36.460741 -50.125217 -54.694001
-38.455968 -50.240439 -54.553744
-39.956081 -48.928911 -54.456925
-41.737007 -48.426589 -54.335470
-43.443164 -47.708809 -54.220574
-45.372754 -47.634886 -54.086075
-47.013274 -46.727961 -53.976938
-48.694718 -46.490013 -53.860807
-49.730060 -44.935534 -53.797996
-51.706163 -44.995643 -53.659416
-53.346682 -44.088718 -53.550279
-54.854165 -43.654972 -53.447524
-56.016957 -42.162259 -53.375417
-57.684863 -41.334253 -53.263877
-59.253223 -40.219388 -53.161071
-60.745947 -38.886569 -53.064901
-62.251713 -37.591329 -52.967587
-63.294945 -36.610629 -52.900680
-64.787669 -35.277810 -52.804510
-66.280394 -33.944991 -52.708340
-67.875705 -32.907791 -52.603170
-68.829391 -31.669051 -52.544119
-70.322116 -30.336232 -52.447949
-71.127571 -28.670343 -52.401903
-71.933027 -27.004455 -52.355858
-72.896904 -25.415341 -52.298258
-73.984652 -23.886259 -52.231624
-75.036663 -22.339858 -52.167597
-76.160150 -20.828096 -52.098356
-76.275953 -18.827983 -52.102609
-76.391757 -16.827869 -52.106862
-77.479506 -15.298787 -52.040228
-77.595310 -13.298674 -52.044481
-77.711113 -11.298561 -52.048734
-77.826917 -9.298447 -52.052986
-77.836489 -7.335418 -52.064440
-77.038695 -5.654229 -52.130620
-77.154499 -3.654116 -52.134873
-76.734142 -1.841169 -52.175469
-76.366277 -0.009897 -52.212507
-76.482080 1.990216 -52.216760
-75.299234 2.964002 -52.305502
-74.640170 4.693620 -52.362278
-74.083584 6.459011 -52.412109
-72.754630 7.954780 -52.514293
-71.425677 9.450548 -52.616477
-70.817852 11.198053 -52.669781
-70.120041 12.914144 -52.729184
-68.726609 14.121270 -52.834095
-67.258301 15.261540 -52.943831
-66.611734 16.995520 -52.999760
-64.950220 17.802210 -53.120948
-63.621267 19.297979 -53.223133
-62.292313 20.793747 -53.325317
-60.630801 21.600442 -53.446505
-59.301846 23.096206 -53.548689
-57.640332 23.902896 -53.669878
-56.056053 24.869621 -53.786652
-54.531137 25.959348 -53.900035
-52.988350 27.012045 -54.014438
-51.326836 27.818735 -54.135626
-49.486077 28.254023 -54.267057
-47.961161 29.343749 -54.380440
-46.342294 30.238806 -54.499191
-44.680780 31.045496 -54.620379
-42.916101 31.638425 -54.747462
-41.357752 32.658877 -54.862755
-39.395958 32.843374 -55.001102
-37.871042 33.933100 -55.114485
-35.875814 34.048323 -55.254743
-34.350898 35.138049 -55.368125
-32.355670 35.253272 -55.508383
-30.360442 35.368494 -55.648641
-28.396912 35.549395 -55.787087
-26.840299 36.573443 -55.902281
-24.845071 36.688666 -56.042539
-22.849843 36.803888 -56.182796
-20.854616 36.919111 -56.323054
-18.859388 37.034334 -56.463312
-16.864160 37.149556 -56.603570
-14.868932 37.264779 -56.743827
-12.873705 37.380002 -56.884085
-10.878477 37.495224 -57.024343
-8.883249 37.610447 -57.164601
-7.068420 37.205824 -57.289031
-5.247502 36.818744 -57.413995
-3.252274 36.933967 -57.554253
-1.336162 36.821205 -57.687569
0.383473 36.142264 -57.803648
2.378700 36.257487 -57.943906
4.019220 35.350561 -58.053042
5.888820 35.103768 -58.182278
7.654967 34.558859 -58.302437
9.375902 33.883665 -58.418630
11.290714 33.767156 -58.551832
12.931233 32.860231 -58.660969
14.926461 32.975453 -58.801227
15.913615 31.833158 -58.863214
17.624122 31.127913 -58.978491
19.400698 30.613055 -59.099565
20.905161 29.314063 -59.196765
22.636964 28.670185 -59.313911
24.186200 27.500212 -59.415039
25.873230 26.727314 -59.528257
27.616771 26.117263 -59.646432
29.109496 24.784444 -59.742602
30.853037 24.174393 -59.860778
32.345762 22.841574 -59.956948
33.838486 21.508755 -60.053118
35.331211 20.175936 -60.149288
36.823936 18.843117 -60.245458
38.316660 17.510298 -60.341628
39.610474 16.081081 -60.423291
39.927572 14.178520 -60.433719
41.641553 13.483286 -60.549301
42.476569 11.902580 -60.597941
42.955664 10.078528 -60.620184
44.087480 8.570803 -60.690032
45.131162 7.020365 -60.753452
45.246966 5.020251 -60.749199
46.334714 3.491170 -60.815833
46.450518 1.491056 -60.811580
47.427490 -0.091711 -60.870135
47.654070 -2.038139 -60.873961
47.769874 -4.038252 -60.869708
47.885678 -6.038366 -60.865455
48.001482 -8.038479 -60.861203
47.499888 -9.823067 -60.815100
47.213260 -11.682697 -60.783569
47.329063 -13.682811 -60.779316
47.118670 -15.569053 -60.752952
46.510845 -17.316557 -60.699649
45.181891 -18.812326 -60.597464
44.574066 -20.559830 -60.544161
43.245112 -22.055599 -60.441977
42.924738 -23.903448 -60.408158
42.029462 -25.550608 -60.335370
41.116687 -27.191658 -60.261396
39.760123 -28.104802 -60.160878
38.431170 -29.600571 -60.058694
37.102216 -31.096339 -59.956510
35.773263 -32.592107 -59.854325
34.991379 -33.978955 -59.791075
33.503924 -35.146302 -59.679834
31.941546 -36.158407 -59.564311
30.513456 -37.448761 -59.456461
28.891714 -38.337860 -59.337546
27.522989 -39.751219 -59.233089
25.861475 -40.557910 -59.111900
24.316966 -41.607039 -58.997398
23.042220 -42.920136 -58.900133
21.850511 -43.752802 -58.811643
19.855283 -43.868025 -58.671385
18.275033 -44.843097 -58.554841
16.613519 -45.649787 -58.433653
14.810224 -46.162700 -58.304363
13.285307 -47.252427 -58.190980
11.628977 -48.069858 -58.070088
9.765164 -48.457376 -57.937340
7.769936 -48.572598 -57.797082
6.245020 -49.662325 -57.683700
4.317800 -49.918462 -57.547328
2.724876 -50.867274 -57.430060
0.729648 -50.982496 -57.289802
-1.265579 -51.097719 -57.149544
-2.993377 -51.767067 -57.024568
-4.785723 -52.302668 -56.895904
-6.780951 -52.417891 -56.755646
-8.776178 -52.533113 -56.615389
-10.771406 -52.648336 -56.475131
-12.766634 -52.763558 -56.334873
-14.292703 -53.850895 -56.221425
10.956523 -25.728941 37.973375
9.482130 -24.578892 38.124881
7.496174 -24.382716 38.277857
5.510219 -24.186540 38.430834
4.035825 -23.036491 38.582340
2.049870 -22.840315 38.735316
0.490910 -21.847950 38.887066
-1.410479 -21.494089 39.039799
-2.884872 -20.344040 39.191305
-4.741896 -19.907454 39.343911
-6.345221 -18.997815 39.495788
-7.989281 -18.164130 39.647782
-9.805570 -17.651589 39.800271
-10.505589 -16.198839 39.906449
-12.129281 -15.327177 40.058384
-13.647506 -14.258858 40.210016
-15.014936 -12.909363 40.361215
-16.596292 -11.958759 40.513028
-17.900592 -10.491548 40.664046
-19.482257 -9.607126 40.813382
-20.055170 -7.851767 40.921673
-21.317133 -6.305615 41.072568
-22.579096 -4.759463 41.223464
-23.109982 -2.991343 41.329156
-24.731431 -2.115499 41.481085
-25.264560 -0.351562 41.586783
-25.369565 1.545861 41.666142
-26.326332 3.184676 41.798167
-27.034822 4.898872 41.914841
-27.388103 6.720914 42.009551
-27.666180 8.565790 42.099612
-27.464910 10.556204 42.160034
-27.263639 12.546618 42.220456
-27.062369 14.537031 42.280878
-26.861098 16.527445 42.341299
-26.422428 18.390507 42.379510
-25.507965 19.998333 42.373207
-24.673562 21.649106 42.374393
-24.154832 23.469220 42.405114
-22.924697 24.907705 42.369276
-21.851108 26.430168 42.348085
-20.699245 27.910642 42.319570
-19.409714 28.703115 42.254980
-18.454428 30.289041 42.244857
-17.660849 31.961714 42.249863
-15.894731 32.498525 42.140684
-14.348129 33.767242 42.075238
-12.751309 34.868526 41.999788
-11.035409 35.572771 41.900613
-9.488807 36.841489 41.835167
-7.724763 37.385215 41.726401
-6.049248 38.224111 41.635272
-4.373733 39.063007 41.544144
-2.643853 39.720640 41.442184
-0.877735 40.257451 41.333005
0.888382 40.794262 41.223826
2.638769 41.383520 41.117781
4.624725 41.187344 40.964804
6.300240 42.026240 40.873675
8.286196 41.830064 40.720699
9.938482 42.746410 40.634198
11.637226 43.507857 40.538441
13.623182 43.311681 40.385464
15.609138 43.115505 40.232488
17.595094 42.919329 40.079511
19.581049 42.723153 39.926535
21.567005 42.526977 39.773558
23.552961 42.330801 39.620582
25.538917 42.134625 39.467605
27.524872 41.938449 39.314628
29.510828 41.742273 39.161652
31.496784 41.546097 39.008675
33.226157 40.871490 38.856436
34.957133 40.199871 38.704193
36.943089 40.003695 38.551216
38.820693 39.605485 38.398551
40.403438 38.657470 38.246733
41.877831 37.507421 38.095227
43.863786 37.311245 37.942251
45.338180 36.161195 37.790745
46.939155 35.247175 37.638875
48.798529 34.814970 37.486262
50.272922 33.664921 37.334756
51.810232 32.632189 37.183069
53.221708 31.364822 37.031744
54.696101 30.214773 36.880238
56.319580 29.342712 36.728303
57.581543 27.796560 36.577407
59.119281 26.764625 36.425719
60.467198 25.378746 36.274577
61.729161 23.832593 36.123681
63.030898 22.360603 35.972671
63.883740 21.192812 35.866054
64.634905 19.491573 35.746742
65.676588 17.878541 35.609466
66.300162 16.138563 35.498043
67.469437 14.564269 35.352879
67.965419 12.785553 35.249345
67.764149 10.795139 35.188923
68.331018 9.037945 35.081006
68.395507 7.128220 35.004152
69.228135 5.451715 34.879803
69.026865 3.461301 34.819381
68.825594 1.470888 34.758959
67.797790 -0.076137 34.775867
67.472461 -2.000000 34.727052
67.271191 -3.990414 34.666630
66.518832 -5.685199 34.657767
65.644399 -7.314498 34.660326
64.766196 -8.941775 34.663237
63.223364 -10.212515 34.728330
62.348931 -11.841815 34.730889
60.802328 -13.110533 34.796335
60.158746 -14.863671 34.777295
58.833948 -15.637225 34.845185
57.287346 -16.905943 34.910631
55.521229 -17.442754 35.019810
53.974626 -18.711471 35.085256
52.366613 -19.775435 35.162937
50.661906 -20.517000 35.259881
49.596827 -21.510643 35.300421
47.801842 -21.951204 35.415352
46.284155 -23.235433 35.478092
45.151525 -24.084748 35.529035
43.165569 -23.888572 35.682012
41.409543 -24.459030 35.789180
39.504098 -24.531292 35.926117
37.828583 -25.370189 36.017246
35.891677 -25.337557 36.160450
34.167112 -26.012909 36.261351
32.181156 -25.816733 36.414328
30.373811 -26.216083 36.531720
28.607694 -26.752894 36.640899
26.844169 -27.298349 36.749562
24.858214 -27.102173 36.902539
22.872258 -26.905997 37.055515
20.886302 -26.709821 37.208492
18.900346 -26.513645 37.361468
16.914391 -26.317469 37.514445
14.928435 -26.121293 37.667421
12.942479 -25.925117 37.820398
-25.254129 -51.614202 -56.899509
-26.802833 -50.559370 -56.797707
-28.798907 -50.489443 -56.658533
-30.607642 -50.007080 -56.535009
-32.343685 -49.364684 -56.417558
-34.282096 -49.167810 -56.283201
-35.888462 -48.239925 -56.176582
-37.884536 -48.169998 -56.037409
-39.433240 -47.115166 -55.935607
-41.429314 -47.045239 -55.796433
-43.310063 -46.721419 -55.666894
-44.672782 -45.257135 -55.580628
-46.522795 -44.865649 -55.453656
-48.071499 -43.810817 -55.351854
-50.026294 -43.650014 -55.216129
-51.616276 -42.686059 -55.110879
-53.384410 -42.114312 -54.990746
-54.842887 -41.263782 -54.893993
-55.711144 -39.614165 -54.843455
-57.390202 -38.846314 -54.730764
-59.069260 -38.078462 -54.618072
-60.748318 -37.310611 -54.505381
-62.111037 -35.846328 -54.419116
-63.473756 -34.382044 -54.332850
-64.970597 -33.213036 -54.235380
-66.507016 -32.146718 -54.134509
-67.163209 -30.417614 -54.099293
-68.411825 -29.488425 -54.017703
-69.489943 -27.917467 -53.952001
-70.852662 -26.453183 -53.865736
-72.215381 -24.988900 -53.779470
-72.863057 -23.256604 -53.744870
-74.154833 -22.343592 -53.660162
-74.474748 -20.488445 -53.649244
-75.837467 -19.024162 -53.562978
-76.485143 -17.291866 -53.528378
-76.912910 -15.477144 -53.509667
-76.844012 -13.476262 -53.526843
-77.713128 -11.826966 -53.476242
-77.717439 -9.853524 -53.488128
-78.293437 -8.094362 -53.458707
-78.590866 -6.230787 -53.449414
-78.521968 -4.229905 -53.466589
-78.453069 -2.229023 -53.483765
-78.384171 -0.228141 -53.500941
-77.332557 1.323862 -53.584075
-77.203675 3.297345 -53.605277
-76.212045 4.876747 -53.684385
-76.143147 6.877629 -53.701561
-75.091533 8.429632 -53.784696
-74.142590 10.028532 -53.860939
-73.971021 11.982517 -53.885006
-72.612048 13.394125 -53.988770
-71.838680 15.055239 -54.053118
-70.118948 15.725422 -54.177535
-69.353677 17.408218 -54.241450
-68.532664 18.941727 -54.308342
-66.860577 19.739515 -54.430215
-65.881619 20.850007 -54.505541
-64.367477 22.070811 -54.618980
-62.907321 23.436202 -54.729535
-61.447165 24.801593 -54.840091
-59.987009 26.166984 -54.950646
-58.259181 26.815484 -55.075496
-56.554996 27.527308 -55.199082
-55.071196 28.829374 -55.310900
-53.343368 29.477874 -55.435749
-51.702412 30.359039 -55.555960
-50.084884 31.302949 -55.674919
-48.427555 32.140264 -55.796003
-46.471281 32.176932 -55.933052
-44.853753 33.120843 -56.052011
-43.236225 34.064753 -56.170970
-41.516241 34.734262 -56.295400
-39.622623 34.938736 -56.429103
-37.792912 35.314369 -56.559392
-36.065083 35.962869 -56.684242
-34.391492 36.756630 -56.806195
-32.395418 36.686702 -56.945368
-30.613925 37.191476 -57.073083
-28.781816 37.560685 -57.203501
-26.785742 37.490758 -57.342674
-24.789668 37.420830 -57.481848
-22.899594 37.634799 -57.615361
-21.176065 38.294813 -57.739981
-19.179991 38.224886 -57.879154
-17.183917 38.154958 -58.018328
-15.187843 38.085031 -58.157501
-13.191769 38.015104 -58.296675
-11.195695 37.945176 -58.435848
-9.199621 37.875249 -58.575022
-7.203546 37.805321 -58.714195
-5.524150 37.038216 -58.826915
-3.658769 36.680563 -58.955171
-1.662695 36.610635 -59.094344
0.333379 36.540708 -59.233518
1.882083 35.485876 -59.335320
3.878157 35.415949 -59.474493
5.874231 35.346021 -59.613667
7.810949 35.145419 -59.747882
9.173668 33.681135 -59.834147
10.967712 33.166431 -59.956444
12.531784 32.145433 -60.059530
14.512490 32.041672 -60.197420
16.061194 30.986841 -60.299222
17.609897 29.932010 -60.401024
19.248015 29.074028 -60.510295
21.154675 28.807251 -60.641999
22.703378 27.752420 -60.743801
24.285189 26.770475 -60.848369
25.800785 25.642757 -60.947405
27.349489 24.587925 -61.049207
29.006024 23.770489 -61.160017
30.212246 22.825410 -61.238543
31.332758 21.270342 -61.307308
32.960292 20.389059 -61.415695
