ply
format ascii 1.0
element vertex 1039
property float x
property float y
property float z
end_header
-20.360341 -52.768746 -57.150689
-22.048051 -51.940993 -57.037763
-24.042008 -52.151031 -56.897009
-26.035965 -52.361069 -56.756254
-27.723675 -51.533315 -56.643328
-29.717632 -51.743353 -56.502573
-31.711589 -51.953391 -56.361819
-33.436800 -51.252718 -56.245485
-35.212058 -50.721644 -56.124603
-37.080966 -50.507922 -55.995212
-38.979125 -50.393326 -55.863162
-40.762632 -49.890207 -55.741531
-42.529641 -49.331178 -55.621399
-44.304900 -48.800105 -55.500517
-46.132008 -48.444738 -55.374923
-47.855416 -47.737957 -55.258753
-49.813675 -47.827022 -55.121243
-51.501385 -46.999269 -55.008316
-53.181192 -46.144736 -54.896108
-54.876803 -45.343762 -54.782463
-56.300950 -44.848099 -54.685920
-57.619586 -43.452509 -54.602313
-59.358799 -42.799287 -54.484707
-61.046508 -41.971534 -54.371780
-62.712061 -41.116340 -54.260573
-63.616688 -39.495378 -54.207314
-64.968919 -38.734023 -54.117441
-66.279824 -37.334225 -54.034401
-68.016541 -36.672546 -53.917022
-69.613791 -35.538248 -53.812315
-71.172499 -34.273345 -53.711111
-71.651737 -32.420816 -53.689033
-72.992617 -31.163520 -53.603017
-73.908595 -30.038499 -53.545901
-74.940558 -28.486854 -53.483308
-76.226770 -27.073614 -53.402079
-77.385858 -25.591171 -53.330167
-77.596247 -23.592290 -53.327797
-78.492068 -21.966535 -53.275184
-79.379945 -20.336455 -53.223152
-80.124811 -18.628524 -53.181604
-80.335200 -16.629644 -53.179234
-80.545589 -14.630763 -53.176864
-80.755978 -12.631882 -53.174494
-80.966367 -10.633001 -53.172124
-81.176757 -8.634120 -53.169754
-80.455320 -6.911920 -53.230847
-80.562121 -4.943796 -53.235532
-80.772510 -2.944915 -53.233161
-80.332542 -1.139140 -53.275085
-79.071369 0.422801 -53.372937
-78.297435 2.129415 -53.437606
-77.281171 3.764075 -53.518778
-76.647386 5.512302 -53.573902
-76.223121 7.322740 -53.614756
-74.961948 8.884681 -53.712608
-73.700775 10.446622 -53.810461
-73.171750 12.225955 -53.858449
-71.605980 13.225950 -53.974135
-70.284820 14.677223 -54.075499
-69.023647 16.239164 -54.173352
-67.686501 17.660945 -54.275652
-66.136718 18.690433 -54.390402
-64.875545 20.252374 -54.488255
-63.614371 21.814316 -54.586107
-61.988615 22.703643 -54.705305
-60.727442 24.265584 -54.803157
-58.816347 24.628494 -54.939060
-57.475930 26.044238 -55.041552
-55.859629 26.951010 -55.160196
-54.224417 27.822892 -55.279947
-52.387313 28.322306 -55.411519
-50.908954 29.483564 -55.522087
-49.347149 30.490873 -55.637540
-47.436637 30.854860 -55.773409
-45.958278 32.016118 -55.883977
-43.964321 32.226156 -56.024732
-42.114958 32.702953 -56.157021
-40.492005 33.597452 -56.276054
-38.863445 34.481607 -56.395416
-37.019688 34.968748 -56.527376
-35.025731 35.178786 -56.668131
-33.031774 35.388824 -56.808885
-31.266671 36.021072 -56.936241
-29.559457 36.760120 -57.060208
-27.565500 36.970157 -57.200962
-25.571542 37.180195 -57.341717
-23.577585 37.390233 -57.482471
-21.583628 37.600271 -57.623226
-19.589670 37.810309 -57.763980
-17.595713 38.020347 -57.904735
-15.665182 38.015451 -58.039726
-13.914046 37.402631 -58.158415
-11.920089 37.612669 -58.299170
-9.926132 37.822707 -58.439924
-8.131048 37.358814 -58.562608
-6.244465 37.204991 -58.693605
-4.250508 37.415029 -58.834360
-2.372173 37.233252 -58.964608
-0.568841 36.797314 -59.088040
1.178343 36.171104 -59.206371
3.112826 36.179598 -59.341721
4.800535 35.351845 -59.454648
6.794493 35.561883 -59.595402
8.495927 34.780638 -59.709576
10.169912 33.906376 -59.821255
11.857621 33.078622 -59.934181
13.605152 32.453588 -60.052544
15.380410 31.922514 -60.173425
17.226997 31.633154 -60.300789
18.260096 30.495190 -60.366016
20.021283 29.916432 -60.485619
21.708992 29.088678 -60.598545
23.369321 28.168139 -60.708984
25.084411 27.433172 -60.824398
26.703288 26.372163 -60.931070
28.261996 25.107260 -61.032274
29.820705 23.842357 -61.133478
31.379413 22.577454 -61.234683
32.938121 21.312551 -61.335887
34.182891 19.876750 -61.414079
35.384707 18.417568 -61.489123
36.501066 16.911865 -61.557902
37.886538 15.709796 -61.647378
38.757923 14.529548 -61.701034
39.823598 12.996254 -61.766098
40.711475 11.366174 -61.818129
41.286487 9.565782 -61.847227
42.445575 8.083339 -61.919138
42.655964 6.084458 -61.921508
42.921322 4.115501 -61.927908
44.025441 2.603135 -61.995790
44.235830 0.604254 -61.998160
44.446219 -1.394626 -62.000530
44.656608 -3.393507 -62.002900
44.866997 -5.392388 -62.005270
44.041972 -7.083831 -61.937122
44.252362 -9.082712 -61.939492
44.462751 -11.081593 -61.941863
43.689990 -12.788555 -61.877274
42.812701 -14.464480 -61.805566
42.631940 -16.347220 -61.781297
41.370767 -17.909161 -61.683444
40.841742 -19.688493 -61.635456
39.580569 -21.250435 -61.537603
38.319396 -22.812376 -61.439751
37.790371 -24.591708 -61.391762
36.529198 -26.153650 -61.293909
35.268025 -27.715591 -61.196057
34.352063 -29.380033 -61.121715
33.113244 -30.384251 -61.028871
31.487488 -31.273578 -60.909673
30.718939 -32.981790 -60.845371
29.332707 -33.942237 -60.742487
27.706950 -34.831564 -60.623289
27.085816 -36.583547 -60.569027
25.552169 -37.500224 -60.456103
23.751476 -38.066812 -60.326664
22.273117 -39.228070 -60.216096
20.674901 -40.168205 -60.098510
19.897532 -41.489372 -60.035982
18.155536 -42.164250 -59.909979
16.529780 -43.053577 -59.790782
14.946857 -44.021926 -59.674092
12.952900 -44.231964 -59.533337
11.474541 -45.393222 -59.422769
9.662172 -45.938271 -59.292646
8.002224 -46.764518 -59.171447
6.046077 -47.044311 -59.032906
4.529908 -48.135814 -58.920124
2.535950 -48.345852 -58.779370
0.804225 -49.039678 -58.653968
-0.936366 -49.717148 -58.528047
-2.930323 -49.927185 -58.387293
-4.924281 -50.137223 -58.246539
-6.427966 -51.251757 -58.134488
-8.396597 -51.508519 -57.995216
-10.390554 -51.718557 -57.854462
-12.384512 -51.928595 -57.713707
-14.378469 -52.138633 -57.572953
-16.372426 -52.348671 -57.432198
-18.366384 -52.558709 -57.291444
11.970320 -25.561381 38.190211
10.473211 -24.429355 38.342701
8.476554 -24.257549 38.495542
6.697260 -23.667933 38.648230
4.982788 -22.953717 38.800873
3.064142 -22.631960 38.953659
1.489022 -21.649886 39.106204
-0.507636 -21.478080 39.259044
-2.004745 -20.346054 39.411535
-3.848861 -19.881037 39.564268
-5.135569 -18.344582 39.716611
-6.775511 -17.487107 39.869202
-8.415453 -16.629631 40.021792
-9.989838 -15.646143 40.174337
-11.695337 -14.914680 40.326973
-12.984056 -13.382091 40.479318
-14.621987 -12.520750 40.631907
-15.978274 -11.118038 40.784299
-16.820383 -9.895652 40.892191
-18.390552 -8.904059 41.044733
-19.018779 -7.270554 41.152476
-20.305487 -5.734100 41.304819
-20.863941 -3.966477 41.412513
-22.067475 -2.970473 41.538347
-22.920405 -1.296326 41.664096
-23.620791 0.426244 41.780491
-24.626264 2.051970 41.915592
-25.465953 3.730321 42.040528
-25.302216 5.727187 42.103945
-26.155146 7.401334 42.229693
-25.978168 9.402403 42.292298
-25.801191 11.403473 42.354903
-25.624214 13.404542 42.417508
-25.447236 15.405611 42.480113
-25.270259 17.406680 42.542718
-24.136322 18.909865 42.516375
-23.795530 20.825705 42.563754
-22.825407 22.414118 42.552637
-22.074892 24.116789 42.561933
-21.514493 25.918372 42.588899
-20.125548 26.678820 42.515813
-19.265229 28.324363 42.514902
-17.728238 29.617847 42.451096
-16.191246 30.911332 42.387290
-14.654254 32.204817 42.323484
-13.117262 33.498301 42.259678
-11.534871 34.647066 42.187078
-9.814573 35.356218 42.087766
-8.277581 36.649703 42.023960
-6.515216 37.224758 41.916500
-4.841997 38.083989 41.826308
-3.168779 38.943219 41.736116
-1.443496 39.636484 41.635839
0.501097 39.630645 41.493083
2.087899 40.765348 41.419629
3.847534 41.349106 41.312698
5.844191 41.177300 41.159857
7.517410 42.036531 41.069665
9.379395 42.294024 40.942909
11.187286 42.723956 40.826632
13.183943 42.552151 40.673791
15.133899 42.529215 40.529996
16.853819 43.239576 40.430758
18.850476 43.067771 40.277918
20.847133 42.895965 40.125077
22.843791 42.724160 39.972237
24.840448 42.552354 39.819396
26.837105 42.380549 39.666555
28.833763 42.208744 39.513715
30.830420 42.036938 39.360874
32.827077 41.865133 39.208034
34.509874 41.090031 39.055413
36.320844 40.561301 38.902703
38.142992 40.054059 38.749985
39.814610 39.257469 38.597372
41.811267 39.085664 38.444531
43.416052 38.160610 38.291965
45.055994 37.303135 38.139375
46.802142 36.649806 37.986710
48.335879 35.588184 37.834194
49.975821 34.730708 37.681603
51.793018 34.213948 37.528889
53.255705 33.015757 37.376422
54.787235 31.949895 37.223908
56.023667 31.138307 37.102627
57.199514 29.735916 36.963473
58.733985 28.675708 36.810957
60.373927 27.818232 36.658366
61.660635 26.281778 36.506023
62.947343 24.745323 36.353680
64.234051 23.208869 36.201337
65.187058 21.566489 36.069453
66.098240 19.941364 35.941287
66.944498 18.801419 35.836204
67.549355 17.048526 35.725665
68.650357 15.453123 35.584707
69.394517 13.744449 35.465628
69.952971 11.976826 35.357934
70.179239 10.103759 35.270606
70.002262 8.102690 35.208001
69.825284 6.101621 35.145396
69.648307 4.100552 35.082791
69.471330 2.099482 35.020186
69.294352 0.098413 34.957581
69.117375 -1.902656 34.894976
68.940398 -3.903725 34.832371
67.724740 -5.364392 34.866310
66.672523 -6.910094 34.885057
66.495546 -8.911163 34.822452
65.361608 -10.414348 34.848795
64.054758 -11.217508 34.914251
63.145315 -12.837492 34.919728
61.428742 -13.427482 35.023267
60.446546 -14.684512 35.047784
58.889706 -15.682711 35.124197
57.713701 -16.553946 35.177492
56.176709 -17.847431 35.241298
54.639717 -19.140915 35.305104
52.985832 -20.061776 35.391552
51.312613 -20.921006 35.481744
49.571330 -21.563264 35.585120
47.966176 -22.639468 35.662129
46.039935 -22.692129 35.801330
44.296301 -23.326893 35.905162
42.623082 -24.186123 35.995354
40.742842 -24.385425 36.125646
38.953206 -24.873549 36.238387
37.211447 -25.514289 36.341856
35.283331 -25.560974 36.481420
33.451346 -25.914101 36.602365
31.613455 -26.248399 36.724453
29.616797 -26.076594 36.877294
27.696842 -26.149292 37.015278
25.946922 -26.764019 37.120327
23.950264 -26.592213 37.273168
21.953607 -26.420408 37.426008
19.956950 -26.248603 37.578849
17.960292 -26.076797 37.731689
15.963635 -25.904992 37.884530
13.966978 -25.733186 38.037370
17.132945 -24.099938 37.478189
15.456724 -23.260504 37.632757
13.463676 -23.455934 37.771463
11.787455 -22.616501 37.926031
9.794408 -22.811931 38.064738
7.801360 -23.007361 38.203444
6.080733 -22.312974 38.355789
4.132091 -22.363358 38.496718
2.455871 -21.523924 38.651286
0.778657 -20.687733 38.805805
-1.213398 -20.879921 38.944561
-2.305697 -19.975865 39.058769
-3.984243 -19.144025 39.213221
-5.660464 -18.304592 39.367789
-7.607773 -18.350624 39.508785
-9.151101 -17.077118 39.670007
-10.694429 -15.803612 39.831229
-12.365347 -14.946859 39.986062
-13.840071 -14.512348 40.110568
-15.098081 -13.086479 40.256631
-16.641409 -11.812973 40.417853
-18.168348 -11.142840 40.555085
-19.277702 -9.637587 40.693249
-20.146637 -8.003948 40.818641
-21.598201 -6.681439 40.974987
-22.558900 -5.096803 41.105254
-23.884770 -3.707172 41.254922
-24.971163 -2.189658 41.391867
-25.217602 -0.223600 41.484185
-25.407150 1.772840 41.573481
-26.550435 3.259973 41.713449
-26.739983 5.256412 41.802744
-26.929531 7.252851 41.892040
-27.119079 9.249290 41.981336
-27.308627 11.245730 42.070632
-26.466215 12.927572 42.072405
-25.813791 14.667333 42.090291
-25.813350 16.605854 42.163474
-26.002898 18.602293 42.252769
-24.906814 20.206803 42.233028
-23.631547 21.756688 42.198090
-22.443702 23.333225 42.170566
-22.494940 25.215535 42.245413
-20.907592 26.176522 42.165358
-19.632325 27.726407 42.130420
-18.357058 29.276293 42.095481
-17.632725 30.711287 42.096586
-16.145353 31.860929 42.030984
-14.545830 32.798943 41.949169
-12.912997 33.674098 41.862538
-11.280163 34.549254 41.775908
-10.004896 36.099139 41.740969
-8.708492 37.609139 41.702975
-6.739229 37.849451 41.567708
-5.228073 38.954211 41.498667
-3.740701 40.103853 41.433065
-1.840729 40.474918 41.307815
-0.260281 41.448925 41.228758
1.732767 41.644355 41.090051
3.415339 42.425655 40.996230
5.213187 42.989427 40.885744
7.206234 43.184857 40.747037
8.693606 44.334500 40.681436
10.686654 44.529929 40.542730
12.679702 44.725359 40.404023
14.672749 44.920789 40.265317
16.665797 45.116219 40.126611
18.658845 45.311649 39.987905
20.651892 45.507079 39.849199
22.644940 45.702509 39.710493
24.610808 45.809162 39.570426
26.314209 45.058506 39.417219
28.307256 45.253936 39.278513
30.300304 45.449366 39.139807
32.128303 45.105692 38.992837
33.969573 44.805363 38.846532
35.887051 44.753957 38.704043
37.638841 44.161359 38.553258
39.315062 43.321926 38.398690
41.189126 43.128716 38.254026
42.956485 42.586969 38.104021
44.660551 41.838489 37.950847
46.336772 40.999056 37.796279
48.258561 40.961729 37.654005
49.801889 39.688223 37.492783
51.569247 39.146476 37.342778
53.112576 37.872970 37.181556
54.717877 36.801889 37.023437
55.748869 35.697584 36.906159
57.488722 35.065994 36.754777
59.059556 33.882331 36.594932
60.602884 32.608825 36.433711
61.982617 31.247958 36.281181
63.015147 29.701680 36.147097
64.269186 28.273691 36.001246
65.412470 26.786558 35.861278
66.296344 25.160896 35.735093
67.165279 23.527257 35.609702
67.888587 21.815851 35.492047
68.078135 19.819412 35.402752
69.097690 18.266206 35.269358
69.410967 16.335840 35.173488
69.600515 14.339401 35.084192
69.790063 12.342961 34.994897
69.362171 10.534751 34.957967
69.137199 8.664680 34.903828
68.294787 6.982837 34.902055
68.455194 4.995281 34.815230
67.641923 3.304555 34.810986
66.634367 1.673057 34.823219
65.957098 -0.059130 34.807440
64.813539 -1.649167 34.831208
63.538272 -3.199053 34.866146
62.397902 -4.790062 34.889644
61.717444 -6.521277 34.874135
60.084611 -7.396432 34.960766
59.403657 -8.913285 34.953390
57.906216 -10.043927 35.020447
56.428913 -11.212569 35.084593
54.941541 -12.362211 35.150195
53.365282 -13.344124 35.228647
51.966797 -14.661495 35.281399
50.099615 -15.094435 35.401909
48.486377 -16.006567 35.485707
46.833948 -16.844746 35.575170
45.201115 -17.719902 35.661801
43.568281 -18.595057 35.748432
42.031213 -19.650924 35.821218
40.038166 -19.846354 35.959924
38.312214 -20.545794 36.060017
36.557746 -21.191426 36.164232
34.564698 -21.386856 36.302938
33.056147 -22.496531 36.371602
31.084279 -22.731928 36.507246
29.091231 -22.927358 36.645952
27.098183 -23.122788 36.784658
25.105136 -23.318218 36.923365
23.112088 -23.513648 37.062071
21.119040 -23.709078 37.200777
19.125993 -23.904508 37.339483
-13.971103 -36.636643 27.808171
-15.492599 -35.550018 27.991156
-17.484984 -35.437963 28.181130
-19.477369 -35.325908 28.371103
-21.469755 -35.213853 28.561077
-23.259506 -34.682418 28.748043
-24.983636 -34.015172 28.934036
-26.908274 -33.762903 29.123004
-28.497518 -32.816492 29.306995
-30.224072 -32.154263 29.493023
-32.011399 -31.617811 29.679954
-33.539871 -30.545623 29.863043
-35.197771 -29.741302 30.048052
-36.575888 -28.357935 30.228910
-38.180601 -27.443537 30.413131
-40.089770 -27.159254 30.601869
-41.496400 -25.834896 30.783150
-42.821330 -24.341450 30.963219
-44.146261 -22.848005 31.143287
-45.704866 -21.838181 31.326823
-46.408941 -20.297540 31.450803
-47.733871 -18.804094 31.630871
-48.338652 -17.057949 31.753378
-49.663582 -15.564503 31.933446
-50.517892 -13.905918 32.075897
-51.417687 -12.263293 32.221984
-51.477924 -10.326068 32.300965
-52.198832 -8.620672 32.432753
-52.080182 -6.620676 32.497435
-51.961531 -4.620680 32.562117
-51.842881 -2.620684 32.626798
-51.724230 -0.620688 32.691480
-51.605580 1.379308 32.756162
-51.486929 3.379304 32.820844
-50.771476 5.090461 32.818953
-50.280217 6.910124 32.842071
-49.156974 8.423922 32.794692
-48.104095 9.971773 32.755161
-46.856996 11.425628 32.693966
-45.927972 13.033422 32.668252
-44.557017 14.427333 32.593241
-42.815029 15.040438 32.454072
-41.729050 16.572270 32.410850
-40.469256 17.909520 32.344055
-38.773062 18.655249 32.214178
-37.189501 19.727169 32.107154
-35.538345 20.603330 31.986415
-33.909747 21.544819 31.870252
-32.269870 22.453643 31.751801
-30.312379 22.442644 31.568908
-28.819652 23.777620 31.480313
-26.997731 24.159237 31.324926
-25.086413 24.281959 31.151401
-23.365468 24.956007 31.016502
-21.725591 25.864831 30.898051
-19.733206 25.752776 30.708078
-17.740821 25.640721 30.518104
-15.877948 25.903741 30.354409
-14.108558 26.437491 30.209680
-12.116173 26.325436 30.019707
-10.123788 26.213381 29.829733
-8.131402 26.101326 29.639760
-6.514657 25.211831 29.455361
-4.617521 24.902645 29.266801
-2.625136 24.790590 29.076827
-0.632750 24.678535 28.886854
1.115847 24.061926 28.700498
2.881131 23.479854 28.513895
4.431645 22.453285 28.330478
6.395013 22.281174 28.140936
7.916509 21.194548 27.957950
9.738313 20.729450 27.770508
11.396212 19.925130 27.585498
12.721143 18.431684 27.405430
14.473383 17.822617 27.219020
16.036941 16.823044 27.035410
17.361872 15.329598 26.855342
19.019771 14.525278 26.670332
20.344702 13.031833 26.490264
21.669632 11.538387 26.310195
22.994563 10.044941 26.130127
24.319494 8.551496 25.950058
24.924274 6.805351 25.827552
26.249205 5.311905 25.647484
26.853985 3.565760 25.524977
27.458766 1.819615 25.402471
28.097227 0.085288 25.277273
28.997022 -1.557337 25.131186
28.878372 -3.557333 25.066504
28.759721 -5.557329 25.001822
28.641071 -7.557325 24.937141
29.540866 -9.199949 24.791054
29.317926 -11.149472 24.738005
28.334154 -12.730770 24.769827
27.703424 -14.482932 24.762266
27.127442 -16.261590 24.748599
26.088923 -17.816392 24.786528
25.281672 -19.483122 24.798658
24.474422 -21.149852 24.810789
22.981694 -22.484828 24.899384
21.488966 -23.819804 24.987978
20.599074 -25.446537 25.009328
19.188988 -26.821510 25.088704
17.696260 -28.156486 25.177298
15.954271 -28.769590 25.316467
15.086996 -30.262487 25.340777
13.155771 -30.327554 25.518341
11.663043 -31.662530 25.606936
9.921055 -32.275635 25.746104
8.174980 -32.876906 25.886102
6.437077 -33.501845 26.024442
4.695089 -34.114950 26.163611
2.902840 -34.582500 26.312977
0.961851 -34.619288 26.492523
-0.729422 -35.379270 26.621402
-2.721807 -35.267214 26.811375
-4.361684 -36.176039 26.929826
-6.354070 -36.063984 27.119799
-8.346455 -35.951929 27.309773
-9.988603 -36.854176 27.428685
-11.978717 -36.748699 27.618197
-10.075090 -38.349157 26.558259
-11.730920 -37.472991 26.745797
-13.726470 -37.624497 26.926084
-15.722021 -37.776003 27.106371
-17.717571 -37.927509 27.286658
-19.561117 -37.619195 27.470190
-21.368951 -37.202849 27.654483
-23.307484 -37.181876 27.835987
-25.020331 -36.478189 28.022308
-26.813633 -36.017882 28.206912
-28.566707 -35.435885 28.392374
-30.327542 -34.877362 28.577671
-32.072856 -34.271891 28.763299
-33.639202 -33.125030 28.952746
-35.338787 -32.381224 29.139350
-37.091861 -31.799227 29.324812
-38.557150 -31.071419 29.488969
-39.680773 -29.576197 29.650339
-41.429615 -28.981396 29.835892
-42.758814 -28.184636 29.989974
-44.014294 -26.745562 30.161509
-45.527150 -25.436891 30.352098
-46.358755 -23.783054 30.492253
-47.871611 -22.474383 30.682842
-48.703216 -20.820546 30.822997
-50.216072 -19.511875 31.013586
-50.510518 -17.585879 31.113975
-51.198031 -15.859036 31.243462
-51.761856 -14.069525 31.363793
-51.905808 -12.067278 31.453040
-52.049760 -10.065032 31.542286
-52.193711 -8.062785 31.631533
-52.337663 -6.060539 31.720780
-52.481614 -4.058292 31.810026
-51.602783 -2.393387 31.791154
-51.714452 -0.401788 31.876988
-50.867904 1.273766 31.861528
-49.989072 2.938671 31.842656
-49.233051 4.644083 31.836766
-47.923773 6.167016 31.772390
-47.337712 7.928485 31.784467
-46.028434 9.451418 31.720091
-44.719156 10.974351 31.655716
-43.068347 11.814778 31.533656
-41.759069 13.337711 31.469281
-40.250930 14.463246 31.371318
-38.798982 15.701070 31.282845
-37.225827 16.696678 31.173901
-35.713275 17.813394 31.075192
-33.846554 18.222349 30.916665
-32.205173 19.081616 30.796197
-30.692621 20.198333 30.697488
-28.894127 20.743629 30.550484
-27.184519 21.466555 30.418493
-25.592508 22.424482 30.306364
-23.676417 22.734777 30.139497
-21.680867 22.886283 29.959210
-19.685317 23.037789 29.778923
-18.172765 24.154506 29.680215
-16.177215 24.306012 29.499927
-14.181665 24.457518 29.319640
-12.286745 24.304611 29.137205
-10.530285 23.732858 28.951815
-8.534735 23.884364 28.771528
-6.539184 24.035870 28.591241
-4.553793 24.156646 28.410737
-2.887804 23.311210 28.223416
-0.892254 23.462716 28.043129
0.763576 22.586549 27.855591
2.759126 22.738055 27.675304
4.451798 21.973336 27.488553
6.070787 20.985723 27.300229
7.957946 20.809342 27.117628
9.722167 20.261063 26.932404
11.464095 19.645348 26.746704
12.976951 18.336677 26.556115
14.689657 17.632564 26.369791
16.242882 16.446009 26.180063
17.980752 15.856309 25.995726
18.827561 14.210176 25.854446
20.340417 12.901505 25.663857
21.853274 11.592834 25.473268
23.366130 10.284162 25.282678
24.481118 8.773906 25.121544
25.029339 6.976489 25.002368
25.860944 5.322652 24.862214
26.839843 3.743443 24.711154
27.947229 2.229335 24.550583
28.091181 0.227089 24.461336
28.506112 -1.637862 24.352028
29.342519 -3.289266 24.211518
29.486470 -5.291512 24.122271
29.630422 -7.293759 24.033024
29.035865 -9.052426 24.021846
28.449804 -10.813895 24.009769
28.016711 -12.625817 23.981522
27.277681 -14.336832 23.985616
27.281832 -16.292969 23.911148
26.105558 -17.859770 23.961463
24.796280 -19.382703 24.025839
24.645338 -21.287686 23.967766
23.282626 -22.223135 24.059371
21.973348 -23.746068 24.123746
20.531831 -25.004737 24.210457
19.013261 -26.109427 24.310182
17.703983 -27.632360 24.374557
16.053174 -28.472787 24.496617
14.481624 -29.471601 24.605290
13.093087 -30.836146 24.683053
11.456520 -31.705034 24.802707
9.943968 -32.821750 24.901416
8.140659 -33.357426 25.049233
6.489850 -34.197852 25.171293
4.923314 -35.206688 25.279120
2.927764 -35.358194 25.459407
0.932214 -35.509701 25.639694
-0.580338 -36.626417 25.738402
-2.575888 -36.777923 25.918689
-4.571438 -36.929429 26.098977
-6.090409 -38.033318 26.198769
-8.079540 -38.197651 26.377972
10.714000 -35.755822 -71.278887
9.080928 -34.823566 -71.218131
7.076966 -34.907676 -71.125554
5.073003 -34.991787 -71.032977
3.069041 -35.075897 -70.940400
1.435969 -34.143641 -70.879644
-0.567994 -34.227751 -70.787067
-2.571956 -34.311862 -70.694491
-4.252167 -33.508784 -70.629690
-6.208990 -33.463716 -70.541158
-7.993709 -32.947024 -70.467391
-9.846025 -32.615571 -70.387825
-11.479097 -31.683315 -70.327069
-13.483059 -31.767425 -70.234492
-15.214533 -31.104825 -70.165293
-17.120093 -30.919280 -70.081159
-18.000536 -29.502161 -70.061824
-19.801588 -29.030229 -69.986655
-21.742077 -28.940401 -69.899524
-23.219459 -27.581502 -69.852126
-24.959101 -26.941282 -69.782226
-26.698742 -26.301063 -69.712327
-28.176124 -24.942164 -69.664928
-29.653506 -23.583265 -69.617529
-31.393147 -22.943045 -69.547630
-32.177249 -21.261921 -69.536560
-33.914586 -20.615387 -69.466858
-34.963892 -19.659554 -69.433057
-36.440633 -18.300357 -69.385692
-37.918015 -16.941458 -69.338293
-39.395397 -15.582559 -69.290894
-40.207606 -13.914498 -69.278351
-41.273423 -12.364310 -69.252519
-42.440983 -10.861410 -69.221355
-43.405058 -9.263934 -69.200855
-44.470875 -7.713746 -69.175022
-44.793288 -5.818036 -69.188146
-45.622063 -4.157675 -69.174735
-46.361492 -2.455787 -69.166006
-46.773251 -0.601603 -69.174447
-47.236416 1.228688 -69.180195
-47.924440 2.954469 -69.174160
-48.009811 4.960352 -69.199704
-47.266172 6.662672 -69.258581
-47.164883 8.600205 -69.291631
-47.250255 10.606089 -69.317176
-46.787159 12.411137 -69.364773
-46.148697 14.151969 -69.419421
-45.475029 15.879910 -69.475484
-44.871773 17.633635 -69.528717
-44.233311 19.374467 -69.583365
-43.594848 21.115300 -69.638013
-42.238199 22.593149 -69.721537
-40.881550 24.070998 -69.805062
-40.243088 25.811831 -69.859710
-38.886439 27.289680 -69.943234
-37.529790 28.767529 -70.026759
-36.173141 30.245378 -70.110283
-34.494103 31.029086 -70.198316
-33.185501 32.524529 -70.279909
-32.176602 33.553627 -70.340997
-30.604465 34.567505 -70.427535
-29.056430 35.633278 -70.513736
-27.461877 36.598893 -70.600587
-25.960360 37.764825 -70.686137
-24.103800 38.166310 -70.776653
-22.747151 39.644159 -70.860177
-20.860327 39.980482 -70.951116
-19.066685 40.517435 -71.040751
-17.710036 41.995284 -71.124276
-15.760295 42.196139 -71.216094
-14.212260 43.261913 -71.302295
-12.350531 43.652269 -71.392883
-10.660262 44.411796 -71.481073
-8.670065 44.525545 -71.573457
-7.108265 45.561680 -71.659850
-5.104302 45.645791 -71.752427
-3.310561 46.182530 -71.842064
-1.552305 46.795674 -71.931204
0.451658 46.879785 -72.023781
2.455620 46.963895 -72.116358
4.459583 47.048006 -72.208935
6.374189 47.324510 -72.300262
8.011580 48.197889 -72.387712
9.785101 47.650511 -72.460518
11.648614 47.349744 -72.541045
13.652577 47.433854 -72.633622
15.656539 47.517965 -72.726199
17.660502 47.602075 -72.818775
19.664464 47.686185 -72.911352
21.297536 46.753929 -72.972108
23.273886 46.762371 -73.062316
24.934570 45.905784 -73.125441
26.938533 45.989894 -73.218018
28.571605 45.057638 -73.278774
30.575567 45.141749 -73.371351
32.496611 44.998633 -73.456813
34.212601 44.293603 -73.524684
35.975893 43.718194 -73.596612
37.478745 42.429091 -73.646196
39.455175 42.437755 -73.736411
41.115779 41.580946 -73.799529
42.748851 40.648690 -73.860285
44.411840 39.798416 -73.923608
46.014995 38.784178 -73.981798
47.891122 38.517977 -74.063407
49.368504 37.159078 -74.110806
50.845886 35.800179 -74.158205
52.323268 34.441280 -74.205603
54.180354 34.122898 -74.285579
54.793357 32.691784 -74.292519
55.906309 31.192942 -74.321253
57.633014 30.517271 -74.390042
58.417115 28.836147 -74.401112
59.987258 28.117147 -74.462130
60.940859 26.514802 -74.482081
62.418240 25.155903 -74.529480
63.202342 23.474779 -74.540550
64.250526 21.916395 -74.565458
65.316344 20.366207 -74.591291
65.401715 18.360324 -74.565746
66.338750 16.750280 -74.584830
67.122852 15.069155 -74.595900
67.618720 13.254064 -74.591866
67.704091 11.248180 -74.566321
67.789462 9.242296 -74.540776
67.874833 7.236413 -74.515232
67.960205 5.230529 -74.489687
68.045576 3.224645 -74.464142
67.115277 1.590676 -74.397760
67.200648 -0.415208 -74.372216
66.521555 -2.141162 -74.315934
65.340052 -3.683145 -74.239452
65.244630 -5.622827 -74.206638
64.495124 -7.322998 -74.147525
63.249519 -8.841509 -74.068465
62.611057 -10.582341 -74.013817
61.254408 -12.060191 -73.930293
59.897759 -13.538040 -73.846768
58.996992 -14.714101 -73.788452
57.872758 -16.169687 -73.715848
56.619407 -17.109273 -73.644931
55.978112 -18.844007 -73.590243
54.301906 -19.633814 -73.502250
52.622868 -20.417522 -73.414217
51.266219 -21.895371 -73.330693
49.785972 -23.107100 -73.245440
48.230531 -24.156929 -73.159136
46.689902 -25.238647 -73.073038
45.194844 -26.418486 -72.987578
43.593832 -27.370194 -72.900637
41.836767 -27.985903 -72.811513
40.041834 -28.520078 -72.721859
38.478691 -29.553320 -72.635447
36.489837 -29.669961 -72.543081
34.941802 -30.735735 -72.456881
33.119186 -31.210305 -72.366840
31.389805 -31.885619 -72.278103
29.438720 -32.083581 -72.186266
27.837807 -33.035502 -72.099325
25.833845 -33.119613 -72.006749
24.079215 -33.740566 -71.917659
22.281847 -34.269497 -71.827971
20.277885 -34.353607 -71.735394
18.273922 -34.437717 -71.642818
16.269960 -34.521828 -71.550241
14.265997 -34.605938 -71.457664
12.715428 -35.666254 -71.371428
6.961294 -37.231158 -69.611200
5.442283 -36.132368 -69.558086
3.447428 -36.005098 -69.469027
1.452573 -35.877828 -69.379967
-0.542282 -35.750558 -69.290907
-2.061293 -34.651767 -69.237794
-4.056148 -34.524497 -69.148734
-5.654695 -33.588095 -69.089613
-7.570013 -33.298437 -69.006561
-9.307330 -32.645358 -68.936957
-11.083879 -32.072376 -68.864388
-12.959966 -31.702621 -68.784301
-14.597744 -30.846316 -68.722216
-16.116755 -29.747525 -68.669102
-17.934210 -29.258062 -68.593444
-19.630620 -28.521464 -68.526929
-21.250373 -27.628357 -68.466206
-22.908454 -26.813504 -68.402587
-24.663496 -26.196613 -68.331643
-26.224616 -25.183798 -68.275349
-27.701517 -23.999032 -68.225416
-29.204306 -22.867123 -68.173528
-30.739537 -21.801451 -68.119190
-32.183996 -20.550449 -68.071708
-33.505604 -19.048627 -68.033507
-34.827212 -17.546805 -67.995306
-35.775206 -16.489208 -67.967615
-37.083511 -14.982839 -67.930087
-38.405120 -13.481017 -67.891886
-39.726728 -11.979195 -67.853685
-41.048336 -10.477373 -67.815484
-41.646554 -8.728260 -67.813884
-42.244772 -6.979146 -67.812285
-43.078700 -5.310610 -67.798759
-43.975910 -3.663707 -67.782032
-44.762816 -1.979097 -67.770885
-44.747300 -0.020177 -67.800339
-45.235862 1.766423 -67.804288
-45.518691 3.623353 -67.818646
-45.392872 5.619980 -67.853682
-45.267053 7.616606 -67.888717
-45.141234 9.613233 -67.923752
-45.015415 11.609860 -67.958787
-44.889597 13.606487 -67.993822
-44.763778 15.603113 -68.028857
-43.667023 17.122803 -68.101149
-43.521346 19.109675 -68.136946
-42.021803 20.431510 -68.224694
-41.347695 22.158810 -68.280768
-41.032086 23.939767 -68.321289
-39.335294 24.684522 -68.409560
-38.522306 26.343602 -68.470963
-37.022763 27.665437 -68.558711
-35.523220 28.987272 -68.646460
-34.676422 30.547435 -68.707952
-32.963144 31.243958 -68.796267
-32.150156 32.903038 -68.857670
-30.403068 33.500644 -68.946074
-28.903525 34.822479 -69.033822
-27.403982 36.144314 -69.121570
-25.741885 36.990574 -69.209749
-24.097112 37.887518 -69.297881
-22.410262 38.661361 -69.386125
-20.807566 39.681407 -69.474147
-18.916086 39.856573 -69.562933
-17.416543 41.178408 -69.650681
-15.523165 41.348025 -69.739472
-13.922366 42.373621 -69.827488
-12.233619 43.141913 -69.915737
-10.428189 43.568833 -70.004295
-8.593991 43.911588 -70.092930
-6.686467 44.039816 -70.181758
-4.954363 44.681262 -70.270122
-2.959508 44.553992 -70.359181
-1.314735 45.450936 -70.447314
0.680120 45.323666 -70.536374
2.324893 46.220610 -70.624507
4.319748 46.093340 -70.713566
6.314604 45.966070 -70.802626
8.309459 45.838800 -70.891685
10.304314 45.711530 -70.980745
12.299169 45.584260 -71.069805
14.294024 45.456991 -71.158864
16.258958 45.417261 -71.247845
17.933652 46.226665 -71.336057
19.690134 45.612713 -71.407109
21.447518 45.000604 -71.478230
23.442373 44.873334 -71.567289
25.337324 44.542092 -71.648802
26.956238 43.647274 -71.709462
28.951094 43.520004 -71.798522
30.648041 42.784503 -71.865077
32.464959 42.293943 -71.940695
34.300677 41.841766 -72.017733
35.978824 41.067883 -72.082868
37.616839 40.212060 -72.144971
39.492690 39.841822 -72.225041
41.269475 39.269323 -72.297627
42.591083 37.767501 -72.335828
44.525566 37.516971 -72.420327
46.044576 36.418180 -72.473440
47.565327 35.322943 -72.526685
49.082597 34.220599 -72.579667
50.601607 33.121808 -72.632780
52.203098 32.191415 -72.692124
53.861179 31.376562 -72.755743
55.182787 29.874741 -72.793945
56.677649 28.726646 -72.845234
58.162477 27.558066 -72.895765
59.484085 26.056244 -72.933966
60.805693 24.554422 -72.972167
62.127302 23.052601 -73.010368
63.448910 21.550779 -73.048569
64.047128 19.801665 -73.050169
65.368736 18.299843 -73.088370
66.415510 16.704069 -73.112665
66.565172 14.801616 -73.091569
67.186901 13.060539 -73.094358
68.084110 11.413636 -73.111085
68.981320 9.766733 -73.127813
68.958044 7.805161 -73.097967
69.752710 6.123203 -73.109506
69.626891 4.126577 -73.074471
69.501073 2.129950 -73.039436
69.375254 0.133323 -73.004401
69.249435 -1.863304 -72.969366
69.123616 -3.859930 -72.934331
68.997797 -5.856557 -72.899295
67.901043 -7.376247 -72.827003
66.868029 -8.927248 -72.757157
66.678469 -10.892564 -72.719676
65.581715 -12.412254 -72.647384
64.484960 -13.931944 -72.575092
63.616078 -15.563568 -72.511543
62.803091 -17.222648 -72.450140
61.303548 -18.544483 -72.362392
59.804005 -19.866318 -72.274644
58.991017 -21.525398 -72.213240
57.491474 -22.847233 -72.125492
55.744386 -23.444839 -72.037088
54.244843 -24.766674 -71.949340
52.497754 -25.364280 -71.860937
51.649214 -27.005896 -71.798169
49.937678 -27.620966 -71.711130
48.992058 -28.892012 -71.649375
47.130057 -29.153424 -71.560667
45.382968 -29.751030 -71.472264
43.883425 -31.072865 -71.384515
42.136337 -31.670471 -71.296112
40.418111 -32.352519 -71.207785
38.642160 -32.865683 -71.119305
37.128565 -34.146407 -71.031519
35.147983 -34.060896 -70.942497
33.488937 -34.916081 -70.854327
31.494082 -34.788811 -70.765267
29.659173 -35.129486 -70.676631
27.854454 -35.558485 -70.588075
25.917450 -35.600469 -70.499168
24.214825 -36.328160 -70.410882
22.219970 -36.200890 -70.321823
20.575197 -37.097834 -70.233690
18.580342 -36.970564 -70.144630
16.585487 -36.843294 -70.055571
14.590632 -36.716024 -69.966511
12.595777 -36.588754 -69.877452
10.703016 -36.760175 -69.788662
8.956149 -37.358428 -69.700259
